nCols  297
nRows  30
xllcenter  790
yllcenter 615
cellsize  5
nodata_value -9999.00
421.461470 418.585537 415.719422 412.863123 410.016641 407.179974 404.353124 401.536088 398.728867 395.931462 393.143871 390.366095 387.598134 384.839988 382.091657 379.353143 376.624444 373.905562 371.196497 368.497249 365.807820 363.128209 360.458418 357.794876 355.141153 352.497249 349.863163 347.238895 344.624444 342.019809 339.424991 336.839988 334.264800 331.699428 329.143871 326.598128 324.062201 321.536088 319.019790 316.513308 314.016641 311.529790 309.052755 306.585537 304.128137 301.680555 299.242792 296.814849 294.396727 291.988426 289.589949 287.201296 284.822468 282.453468 280.094295 277.744953 275.405442 273.075763 270.755920 268.445913 266.145744 263.855415 261.574929 259.304286 257.043489 254.792541 252.551442 250.320195 248.098803 245.887267 243.685590 241.493773 239.311819 237.139730 234.977509 232.825156 230.682675 228.550068 226.427336 224.314482 222.211508 220.118415 218.035207 215.961884 213.898449 211.844904 209.801250 207.767489 205.743623 203.729654 201.725584 199.731413 197.747144 195.772778 193.808316 191.853761 189.909112 187.974372 186.049541 184.134622 182.229614 180.334519 178.449338 176.574072 174.708722 172.853288 171.007772 169.172174 167.346494 165.530734 163.724893 161.928973 160.142974 158.366896 156.600739 154.844505 153.098193 151.361803 149.635335 147.918791 146.212169 144.515470 142.828694 141.151841 139.485724 137.872857 136.283730 134.722169 133.192773 131.700966 130.253035 128.856125 127.518176 126.247814 125.054146 123.946497 122.934041 122.025357 121.227911 120.547467 119.987479 119.548463 119.227423 119.017345 118.906835 118.879918 118.916058 118.990427 119.074420 119.136442 119.142922 119.059533 118.852546 118.490254 117.944381 117.191387 116.213584 115.000000 113.546917 111.858053 109.944381 107.823588 105.519213 103.059533 100.476255 97.803109 95.074420 92.323760 89.582725 86.879918 84.240169 81.684012 79.227423 76.881797 74.654146 72.547467 70.561244 68.692024 66.934041 65.279831 63.720813 62.247814 60.851510 59.522791 58.253035 57.034299 55.859439 54.722169 53.617063 52.539524 51.485724 50.452527 49.437403 48.438345 47.453780 46.482493 45.523560 44.577063 43.643340 42.719507 41.805564 40.901511 40.007347 39.123073 38.248687 37.384190 36.529581 35.684859 34.850024 34.025077 33.210016 32.404842 31.609553 30.824150 30.048633 29.283001 28.527254 27.781391 27.045412 26.319318 25.603107 24.896780 24.200336 23.513775 22.837097 22.170301 21.513388 20.866357 20.229208 19.601940 18.984554 18.377050 17.779426 17.191683 16.613822 16.045840 15.487739 14.939519 14.401178 13.872718 13.354137 12.845436 12.346614 11.857672 11.378609 10.909426 10.450121 10.000695 9.561148 9.131480 8.711690 8.301779 7.901747 7.511592 7.131316 6.760918 6.400398 6.049756 5.708993 5.378106 5.057098 4.745968 4.444715 4.153339 3.871842 3.600222 3.338479 3.086613 2.844625 2.612515 2.390281 2.177925 1.975446 1.782844 1.600120 1.427272 1.264301 1.111208 0.967991 0.834652 0.711189 0.597603 0.493895 0.400063 0.316108 0.242029 0.177828 0.123503 0.079056 0.044484 0.019790 0.004973 0.000032 0.000029 0.000027 0.000025 0.000023
421.157811 418.279566 415.411183 412.552662 409.704002 406.865203 404.036266 401.217190 398.407975 395.608622 392.819129 390.039498 387.269728 384.509819 381.759772 379.019585 376.289261 373.568798 370.858196 368.157457 365.466579 362.785563 360.114410 357.452230 354.799912 352.157457 349.524863 346.902131 344.289261 341.686252 339.093105 336.509819 333.936395 331.372832 328.819129 326.275289 323.741309 321.217190 318.702933 316.198537 313.704002 311.219328 308.744517 306.279566 303.824478 301.379251 298.943887 296.518385 294.102746 291.696970 289.301057 286.915007 284.538821 282.172499 279.816042 277.469450 275.132723 272.805861 270.488866 268.181737 265.884475 263.597080 261.319554 259.051896 256.794106 254.546186 252.308136 250.079956 247.861648 245.653211 243.454645 241.265953 239.087133 236.918187 234.759115 232.609918 230.470596 228.341150 226.221580 224.111887 222.012072 219.922134 217.842074 215.771894 213.711592 211.661171 209.620629 207.589968 205.569189 203.558291 201.557275 199.566141 197.584890 195.613522 193.652038 191.700437 189.758721 187.826889 185.904942 183.992880 182.090703 180.198412 178.316007 176.443488 174.580855 172.728109 170.885249 169.052276 167.229191 165.415992 163.612681 161.819258 160.035722 158.262073 156.498313 154.744440 153.000455 151.266358 149.542150 147.827829 146.123396 144.438345 142.770737 141.119193 139.485724 137.872857 136.283730 134.722169 133.192773 131.700966 130.253035 128.856125 127.518176 126.247814 125.054146 123.946497 122.934041 122.025357 121.227911 120.547467 119.987479 119.548463 119.227423 119.017345 118.906835 118.879918 118.916058 118.990427 119.074420 119.136442 119.142922 119.059533 118.852546 118.490254 117.944381 117.191387 116.213584 115.000000 113.546917 111.858053 109.944381 107.823588 105.519213 103.059533 100.476255 97.803109 95.074420 92.323760 89.582725 86.879918 84.240169 81.684012 79.227423 76.881797 74.654146 72.547467 70.561244 68.692024 66.934041 65.279831 63.720813 62.247814 60.851510 59.522791 58.253035 57.034299 55.859439 54.722169 53.617063 52.539524 51.485724 50.452527 49.437403 48.438345 47.453780 46.482493 45.523560 44.576288 43.640162 42.714805 41.799946 40.895748 40.001836 39.117805 38.243653 37.379380 36.524987 35.680473 34.845839 34.021084 33.206207 32.401210 31.606092 30.820852 30.045491 29.280009 28.524406 27.778681 27.042834 26.316866 25.600777 24.894565 24.198232 23.511777 22.835200 22.168501 21.511680 20.864737 20.227672 19.600485 18.983175 18.375744 17.778190 17.190513 16.612715 16.044793 15.486750 14.938583 14.400294 13.871883 13.353349 12.844692 12.345913 11.857011 11.377986 10.908838 10.449567 10.000174 9.560657 9.131018 8.711256 8.301371 7.901363 7.511231 7.130977 6.760600 6.400100 6.049476 5.708730 5.377860 5.056867 4.745751 4.444512 4.153150 3.871664 3.600055 3.338323 3.086468 2.844490 2.612388 2.390163 2.177815 1.975343 1.782748 1.600030 1.427188 1.264223 1.111135 0.967924 0.834589 0.711131 0.597549 0.493844 0.400016 0.316064 0.241989 0.177790 0.123468 0.079023 0.044454 0.019762 0.004947 0.000008 0.000007 0.000007 0.000006 0.000006
421.056790 418.177778 415.308642 412.449383 409.600000 406.760494 403.930864 401.111111 398.301235 395.501235 392.711111 389.930864 387.160494 384.400000 381.649383 378.908642 376.177778 373.456790 370.745679 368.044444 365.353086 362.671605 360.000000 357.338272 354.686420 352.044444 349.412346 346.790123 344.177778 341.575309 338.982716 336.400000 333.827160 331.264198 328.711111 326.167901 323.634568 321.111111 318.597531 316.093827 313.600000 311.116049 308.641975 306.177778 303.723457 301.279012 298.844444 296.419753 294.004938 291.600000 289.204938 286.819753 284.444444 282.079012 279.723457 277.377778 275.041975 272.716049 270.400000 268.093827 265.797531 263.511111 261.234568 258.967901 256.711111 254.464198 252.227160 250.000000 247.782716 245.575309 243.377778 241.190123 239.012346 236.844444 234.686420 232.538272 230.400000 228.271605 226.153086 224.044444 221.945679 219.856790 217.777778 215.708642 213.649383 211.600000 209.560494 207.530864 205.511111 203.501235 201.501235 199.511111 197.530864 195.560494 193.600000 191.649383 189.708642 187.777778 185.856791 183.945680 182.044447 180.153090 178.271612 176.400012 174.538291 172.686453 170.844501 169.012439 167.190276 165.378026 163.575708 161.783352 160.001002 158.228724 156.466612 154.714805 152.973495 151.242954 149.523560 147.815826 146.120446 144.438345 142.770737 141.119193 139.485724 137.872857 136.283730 134.722169 133.192773 131.700966 130.253035 128.856125 127.518176 126.247814 125.054146 123.946497 122.934041 122.025357 121.227911 120.547467 119.987479 119.548463 119.227423 119.017345 118.906835 118.879918 118.916058 118.990427 119.074420 119.136442 119.142922 119.059533 118.852546 118.490254 117.944381 117.191387 116.213584 115.000000 113.546917 111.858053 109.944381 107.823588 105.519213 103.059533 100.476255 97.803109 95.074420 92.323760 89.582725 86.879918 84.240169 81.684012 79.227423 76.881797 74.654146 72.547467 70.561244 68.692024 66.934041 65.279831 63.720813 62.247814 60.851510 59.522791 58.253035 57.034299 55.859439 54.722169 53.617063 52.539524 51.485724 50.452527 49.437403 48.438345 47.453780 46.482493 45.523560 44.576288 43.640162 42.714805 41.799946 40.895390 40.001002 39.116685 38.242374 37.378026 36.523610 35.679106 34.844501 34.019787 33.204958 32.400012 31.604945 30.819757 30.044447 29.279014 28.523457 27.777778 27.041976 26.316049 25.600000 24.893827 24.197531 23.511111 22.834568 22.167901 21.511111 20.864198 20.227160 19.600000 18.982716 18.375309 17.777778 17.190123 16.612346 16.044444 15.486420 14.938272 14.400000 13.871605 13.353086 12.844444 12.345679 11.856790 11.377778 10.908642 10.449383 10.000000 9.560494 9.130864 8.711111 8.301235 7.901235 7.511111 7.130864 6.760494 6.400000 6.049383 5.708642 5.377778 5.056790 4.745679 4.444444 4.153086 3.871605 3.600000 3.338272 3.086420 2.844444 2.612346 2.390123 2.177778 1.975309 1.782716 1.600000 1.427160 1.264198 1.111111 0.967901 0.834568 0.711111 0.597531 0.493827 0.400000 0.316049 0.241975 0.177778 0.123457 0.079012 0.044444 0.019753 0.004938 0.000000 0.000000 0.000000 0.000000 0.000000
421.157811 418.279566 415.411183 412.552662 409.704002 406.865203 404.036266 401.217190 398.407975 395.608622 392.819129 390.039498 387.269728 384.509819 381.759772 379.019585 376.289261 373.568798 370.858196 368.157457 365.466579 362.785563 360.114410 357.452230 354.799912 352.157457 349.524863 346.902131 344.289261 341.686252 339.093105 336.509819 333.936395 331.372832 328.819129 326.275289 323.741309 321.217190 318.702933 316.198537 313.704002 311.219328 308.744517 306.279566 303.824478 301.379251 298.943887 296.518385 294.102746 291.696970 289.301057 286.915007 284.538821 282.172499 279.816042 277.469450 275.132723 272.805861 270.488866 268.181737 265.884475 263.597080 261.319554 259.051896 256.794106 254.546186 252.308136 250.079956 247.861648 245.653211 243.454645 241.265953 239.087133 236.918187 234.759115 232.609918 230.470596 228.341150 226.221580 224.111887 222.012072 219.922134 217.842074 215.771894 213.711592 211.661171 209.620629 207.589968 205.569189 203.558291 201.557275 199.566141 197.584890 195.613522 193.652038 191.700437 189.758721 187.826889 185.904942 183.992880 182.090703 180.198412 178.316007 176.443488 174.580855 172.728109 170.885249 169.052276 167.229191 165.415992 163.612681 161.819258 160.035722 158.262073 156.498313 154.744440 153.000455 151.266358 149.542150 147.827829 146.123396 144.438345 142.770737 141.119193 139.485724 137.872857 136.283730 134.722169 133.192773 131.700966 130.253035 128.856125 127.518176 126.247814 125.054146 123.946497 122.934041 122.025357 121.227911 120.547467 119.987479 119.548463 119.227423 119.017345 118.906835 118.879918 118.916058 118.990427 119.074420 119.136442 119.142922 119.059533 118.852546 118.490254 117.944381 117.191387 116.213584 115.000000 113.546917 111.858053 109.944381 107.823588 105.519213 103.059533 100.476255 97.803109 95.074420 92.323760 89.582725 86.879918 84.240169 81.684012 79.227423 76.881797 74.654146 72.547467 70.561244 68.692024 66.934041 65.279831 63.720813 62.247814 60.851510 59.522791 58.253035 57.034299 55.859439 54.722169 53.617063 52.539524 51.485724 50.452527 49.437403 48.438345 47.453780 46.482493 45.523560 44.576288 43.640162 42.714805 41.799946 40.895748 40.001836 39.117805 38.243653 37.379380 36.524987 35.680473 34.845839 34.021084 33.206207 32.401210 31.606092 30.820852 30.045491 29.280009 28.524406 27.778681 27.042834 26.316866 25.600777 24.894565 24.198232 23.511777 22.835200 22.168501 21.511680 20.864737 20.227672 19.600485 18.983175 18.375744 17.778190 17.190513 16.612715 16.044793 15.486750 14.938583 14.400294 13.871883 13.353349 12.844692 12.345913 11.857011 11.377986 10.908838 10.449567 10.000174 9.560657 9.131018 8.711256 8.301371 7.901363 7.511231 7.130977 6.760600 6.400100 6.049476 5.708730 5.377860 5.056867 4.745751 4.444512 4.153150 3.871664 3.600055 3.338323 3.086468 2.844490 2.612388 2.390163 2.177815 1.975343 1.782748 1.600030 1.427188 1.264223 1.111135 0.967924 0.834589 0.711131 0.597549 0.493844 0.400016 0.316064 0.241989 0.177790 0.123468 0.079023 0.044454 0.019762 0.004947 0.000008 0.000007 0.000007 0.000006 0.000006
421.461470 418.585537 415.719422 412.863123 410.016641 407.179974 404.353124 401.536088 398.728867 395.931462 393.143871 390.366095 387.598134 384.839988 382.091657 379.353143 376.624444 373.905562 371.196497 368.497249 365.807820 363.128209 360.458418 357.794876 355.141153 352.497249 349.863163 347.238895 344.624444 342.019809 339.424991 336.839988 334.264800 331.699428 329.143871 326.598128 324.062201 321.536088 319.019790 316.513308 314.016641 311.529790 309.052755 306.585537 304.128137 301.680555 299.242792 296.814849 294.396727 291.988426 289.589949 287.201296 284.822468 282.453468 280.094295 277.744953 275.405442 273.075763 270.755920 268.445913 266.145744 263.855415 261.574929 259.304286 257.043489 254.792541 252.551442 250.320195 248.098803 245.887267 243.685590 241.493773 239.311819 237.139730 234.977509 232.825156 230.682675 228.550068 226.427336 224.314482 222.211508 220.118415 218.035207 215.961884 213.898449 211.844904 209.801250 207.767489 205.743623 203.729654 201.725584 199.731413 197.747144 195.772778 193.808316 191.853761 189.909112 187.974372 186.049541 184.134622 182.229614 180.334519 178.449338 176.574072 174.708722 172.853288 171.007772 169.172174 167.346494 165.530734 163.724893 161.928973 160.142974 158.366896 156.600739 154.844505 153.098193 151.361803 149.635335 147.918791 146.212169 144.515470 142.828694 141.151841 139.485724 137.872857 136.283730 134.722169 133.192773 131.700966 130.253035 128.856125 127.518176 126.247814 125.054146 123.946497 122.934041 122.025357 121.227911 120.547467 119.987479 119.548463 119.227423 119.017345 118.906835 118.879918 118.916058 118.990427 119.074420 119.136442 119.142922 119.059533 118.852546 118.490254 117.944381 117.191387 116.213584 115.000000 113.546917 111.858053 109.944381 107.823588 105.519213 103.059533 100.476255 97.803109 95.074420 92.323760 89.582725 86.879918 84.240169 81.684012 79.227423 76.881797 74.654146 72.547467 70.561244 68.692024 66.934041 65.279831 63.720813 62.247814 60.851510 59.522791 58.253035 57.034299 55.859439 54.722169 53.617063 52.539524 51.485724 50.452527 49.437403 48.438345 47.453780 46.482493 45.523560 44.577063 43.643340 42.719507 41.805564 40.901511 40.007347 39.123073 38.248687 37.384190 36.529581 35.684859 34.850024 34.025077 33.210016 32.404842 31.609553 30.824150 30.048633 29.283001 28.527254 27.781391 27.045412 26.319318 25.603107 24.896780 24.200336 23.513775 22.837097 22.170301 21.513388 20.866357 20.229208 19.601940 18.984554 18.377050 17.779426 17.191683 16.613822 16.045840 15.487739 14.939519 14.401178 13.872718 13.354137 12.845436 12.346614 11.857672 11.378609 10.909426 10.450121 10.000695 9.561148 9.131480 8.711690 8.301779 7.901747 7.511592 7.131316 6.760918 6.400398 6.049756 5.708993 5.378106 5.057098 4.745968 4.444715 4.153339 3.871842 3.600222 3.338479 3.086613 2.844625 2.612515 2.390281 2.177925 1.975446 1.782844 1.600120 1.427272 1.264301 1.111208 0.967991 0.834652 0.711189 0.597603 0.493895 0.400063 0.316108 0.242029 0.177828 0.123503 0.079056 0.044484 0.019790 0.004973 0.000032 0.000029 0.000027 0.000025 0.000023
421.969572 419.097524 416.235220 413.382657 410.539836 407.706754 404.883411 402.069806 399.265939 396.471809 393.687416 390.912761 388.147842 385.392662 382.647220 379.911518 377.185555 374.469333 371.762853 369.066116 366.379124 363.701877 361.034379 358.368544 355.712457 353.066116 350.429519 347.802666 345.185555 342.578184 339.980554 337.392662 334.814509 332.246094 329.687416 327.138475 324.599272 322.069806 319.550077 317.040087 314.539836 312.049324 309.568553 307.097524 304.636238 302.184698 299.742904 297.310859 294.888565 292.476025 290.073241 287.680215 285.296951 282.923452 280.559720 278.205760 275.861575 273.527169 271.202545 268.887707 266.582661 264.287408 262.001955 259.726306 257.460464 255.204435 252.958224 250.721834 248.495271 246.278540 244.071645 241.874591 239.687384 237.510027 235.342526 233.184886 231.037112 228.899208 226.771179 224.653030 222.544766 220.446390 218.357908 216.279324 214.210642 212.151867 210.103002 208.064052 206.035021 204.015913 202.006730 200.007478 198.018159 196.038776 194.069334 192.109834 190.160281 188.220676 186.291023 184.371324 182.461582 180.561799 178.671977 176.792118 174.922225 173.062299 171.212341 169.372354 167.542339 165.722296 163.912229 162.112137 160.322021 158.541883 156.771723 155.011543 153.261341 151.521120 149.790880 148.070620 146.360341 144.660044 142.969728 141.289393 139.619040 137.958668 136.308276 134.722169 133.192773 131.700966 130.253035 128.856125 127.518176 126.247814 125.054146 123.946497 122.934041 122.025357 121.227911 120.547467 119.987479 119.548463 119.227423 119.017345 118.906835 118.879918 118.916058 118.990427 119.074420 119.136442 119.142922 119.059533 118.852546 118.490254 117.944381 117.191387 116.213584 115.000000 113.546917 111.858053 109.944381 107.823588 105.519213 103.059533 100.476255 97.803109 95.074420 92.323760 89.582725 86.879918 84.240169 81.684012 79.227423 76.881797 74.654146 72.547467 70.561244 68.692024 66.934041 65.279831 63.720813 62.247814 60.851510 59.522791 58.253035 57.034299 55.859439 54.722169 53.617063 52.539524 51.485724 50.452527 49.437403 48.438345 47.453780 46.486678 45.532647 44.588526 43.654315 42.730011 41.815615 40.911125 40.016540 39.131861 38.257085 37.392213 36.537242 35.692174 34.857006 34.031738 33.216369 32.410899 31.615327 30.829652 30.053874 29.287991 28.532004 27.785911 27.049713 26.323407 25.606995 24.900474 24.203846 23.517108 22.840261 22.173305 21.516237 20.869059 20.231769 19.604368 18.986854 18.379228 17.781488 17.193635 16.615668 16.047586 15.489390 14.941079 14.402652 13.874110 13.355451 12.846676 12.347784 11.858776 11.379650 10.910406 10.451044 10.001565 9.561967 9.132250 8.712415 8.302461 7.902387 7.512194 7.131882 6.761449 6.400897 6.050224 5.709431 5.378518 5.057484 4.746329 4.445053 4.153656 3.872138 3.600499 3.338738 3.086856 2.844852 2.612726 2.390479 2.178110 1.975618 1.783005 1.600269 1.427411 1.264431 1.111329 0.968104 0.834757 0.711287 0.597694 0.493979 0.400141 0.316180 0.242097 0.177891 0.123562 0.079110 0.044535 0.019837 0.005016 0.000072 0.000066 0.000061 0.000057 0.000053
422.685183 419.818644 416.961744 414.114481 411.276852 408.448855 405.630488 402.821751 400.022642 397.233162 394.453308 391.683082 388.922485 386.171515 383.430175 380.698466 377.976388 375.263945 372.561137 369.867967 367.184438 364.510552 361.846311 359.177218 356.517771 353.867967 351.227804 348.597278 345.976388 343.365132 340.763508 338.171515 335.589151 333.016416 330.453308 327.899828 325.355976 322.821751 320.297155 317.782188 315.276852 312.781147 310.295078 307.818644 305.351850 302.894697 300.447190 298.009332 295.581127 293.162579 290.753692 288.354473 285.964926 283.585056 281.214869 278.854373 276.503572 274.162474 271.831085 269.509413 267.197466 264.895250 262.602773 260.320044 258.047070 255.783859 253.530421 251.286763 249.052895 246.828823 244.614558 242.410108 240.215482 238.030688 235.855735 233.690631 231.535387 229.390009 227.254506 225.128887 223.013160 220.907333 218.811415 216.725413 214.649334 212.583187 210.526978 208.480716 206.444406 204.418057 202.401673 200.395263 198.398831 196.412384 194.435929 192.469469 190.513011 188.566559 186.630118 184.703694 182.787290 180.880910 178.984559 177.098240 175.221956 173.355711 171.499508 169.653349 167.817238 165.991175 164.175165 162.369208 160.573307 158.787462 157.011676 155.245950 153.490284 151.744680 150.009138 148.283659 146.568244 144.862892 143.167603 141.482378 139.807216 138.142118 136.487082 134.842109 133.207197 131.700966 130.253035 128.856125 127.518176 126.247814 125.054146 123.946497 122.934041 122.025357 121.227911 120.547467 119.987479 119.548463 119.227423 119.017345 118.906835 118.879918 118.916058 118.990427 119.074420 119.136442 119.142922 119.059533 118.852546 118.490254 117.944381 117.191387 116.213584 115.000000 113.546917 111.858053 109.944381 107.823588 105.519213 103.059533 100.476255 97.803109 95.074420 92.323760 89.582725 86.879918 84.240169 81.684012 79.227423 76.881797 74.654146 72.547467 70.561244 68.692024 66.934041 65.279831 63.720813 62.247814 60.851510 59.522791 58.253035 57.034299 55.859439 54.722169 53.617063 52.539524 51.485724 50.452527 49.437403 48.443539 47.468896 46.504192 45.549426 44.604595 43.669699 42.744736 41.829704 40.924601 40.029427 39.144179 38.268857 37.403458 36.547982 35.702427 34.866792 34.041075 33.225275 32.419390 31.623421 30.837364 30.061220 29.294986 28.538663 27.792248 27.055740 26.329140 25.612444 24.905653 24.208765 23.521780 22.844697 22.177514 21.520231 20.872846 20.235360 19.607771 18.990078 18.382281 17.784379 17.196371 16.618256 16.050034 15.491704 14.943266 14.404718 13.876061 13.357293 12.848415 12.349424 11.860322 11.381108 10.911780 10.452339 10.002784 9.563114 9.133330 8.713431 8.303416 7.903285 7.513038 7.132674 6.762193 6.401595 6.050879 5.710046 5.379094 5.058024 4.746835 4.445527 4.154100 3.872553 3.600887 3.339101 3.087196 2.845169 2.613023 2.390756 2.178368 1.975859 1.783230 1.600479 1.427607 1.264614 1.111499 0.968262 0.834904 0.711423 0.597821 0.494097 0.400251 0.316282 0.242192 0.177979 0.123643 0.079185 0.044605 0.019902 0.005076 0.000128 0.000118 0.000109 0.000101 0.000093
423.612730 420.753397 417.903567 415.063237 412.232403 409.411062 406.599210 403.796847 401.003970 398.220578 395.446671 392.682249 389.927312 387.181861 384.445898 381.719423 379.002440 376.294952 373.596960 370.908469 368.229482 365.560003 362.900037 360.226670 357.562815 354.908469 352.263626 349.628285 347.002440 344.386090 341.779231 339.181861 336.593979 334.015582 331.446671 328.887245 326.337303 323.796847 321.265877 318.744395 316.232403 313.729904 311.236900 308.753397 306.279397 303.814905 301.359928 298.914470 296.478538 294.052139 291.635281 289.227971 286.830217 284.442029 282.063415 279.694386 277.334952 274.985123 272.644910 270.314325 267.993379 265.682084 263.380452 261.088497 258.806230 256.533665 254.270816 252.017694 249.774314 247.540689 245.316834 243.102760 240.898484 238.704017 236.519374 234.344568 232.179613 230.024523 227.879310 225.743987 223.618569 221.503066 219.397493 217.301861 215.216183 213.140470 211.074734 209.018986 206.973237 204.937497 202.911778 200.896088 198.890439 196.894838 194.909295 192.933818 190.968416 189.013097 187.067868 185.132736 183.207707 181.292790 179.387988 177.493309 175.608757 173.734338 171.870055 170.015914 168.171919 166.338073 164.514379 162.700840 160.897460 159.104240 157.321183 155.548290 153.785564 152.033005 150.290615 148.558394 146.836343 145.124462 143.422752 141.731212 140.049842 138.378642 136.717610 135.066747 133.426051 131.795521 130.253035 128.856125 127.518176 126.247814 125.054146 123.946497 122.934041 122.025357 121.227911 120.547467 119.987479 119.548463 119.227423 119.017345 118.906835 118.879918 118.916058 118.990427 119.074420 119.136442 119.142922 119.059533 118.852546 118.490254 117.944381 117.191387 116.213584 115.000000 113.546917 111.858053 109.944381 107.823588 105.519213 103.059533 100.476255 97.803109 95.074420 92.323760 89.582725 86.879918 84.240169 81.684012 79.227423 76.881797 74.654146 72.547467 70.561244 68.692024 66.934041 65.279831 63.720813 62.247814 60.851510 59.522791 58.253035 57.034299 55.859439 54.722169 53.617063 52.539524 51.485724 50.452527 49.453734 48.468096 47.492435 46.526749 45.571035 44.625290 43.689513 42.763700 41.847848 40.941957 40.046023 39.160044 38.284017 37.417942 36.561814 35.715632 34.879395 34.053099 33.236744 32.430326 31.633844 30.847296 30.070680 29.303995 28.547238 27.800408 27.063503 26.336522 25.619462 24.912322 24.215101 23.527797 22.850409 22.182935 21.525374 20.877724 20.239984 19.612153 18.994230 18.386213 17.788101 17.199894 16.621589 16.053186 15.494685 14.946082 14.407379 13.878574 13.359666 12.850653 12.351537 11.862314 11.382985 10.913550 10.454006 10.004354 9.564592 9.134721 8.714739 8.304646 7.904441 7.514124 7.133695 6.763152 6.402495 6.051723 5.710837 5.379836 5.058719 4.747487 4.446137 4.154671 3.873088 3.601388 3.339569 3.087633 2.845578 2.613405 2.391112 2.178701 1.976170 1.783520 1.600749 1.427859 1.264848 1.111717 0.968465 0.835093 0.711600 0.597985 0.494249 0.400392 0.316414 0.242314 0.178092 0.123748 0.079283 0.044695 0.019985 0.005154 0.000199 0.000185 0.000171 0.000158 0.000146
424.758139 421.907808 419.066814 416.235151 413.412812 410.599793 407.796091 405.001701 402.216622 399.440851 396.674388 393.917233 391.169385 388.430846 385.701619 382.981704 380.271106 377.569827 374.877873 372.195248 369.521958 366.858008 364.203405 361.524675 358.855291 356.195248 353.544540 350.903161 348.271106 345.648371 343.034952 340.430846 337.836052 335.250566 332.674388 330.107518 327.549955 325.001701 322.462757 319.933127 317.412812 314.901817 312.400147 309.907808 307.424806 304.951147 302.486841 300.031895 297.586319 295.150123 292.723319 290.305917 287.897931 285.499372 283.110256 280.730596 278.360407 275.999705 273.648506 271.306826 268.974683 266.652094 264.339077 262.035650 259.741832 257.457642 255.183099 252.918222 250.663032 248.417547 246.181789 243.955775 241.739528 239.533065 237.336408 235.149576 232.972588 230.805465 228.648224 226.500886 224.363469 222.235991 220.118471 218.010927 215.913375 213.825833 211.748318 209.680845 207.623431 205.576091 203.538840 201.511692 199.494660 197.487759 195.491000 193.504397 191.527961 189.561704 187.605635 185.659766 183.724106 181.798664 179.883448 177.978467 176.083729 174.199241 172.325008 170.461038 168.607336 166.763906 164.930755 163.107885 161.295302 159.493007 157.701005 155.919298 154.147888 152.386776 150.635965 148.895455 147.165247 145.445342 143.735739 142.036439 140.347440 138.668743 137.000346 135.342247 133.694446 132.056940 130.429727 128.856125 127.518176 126.247814 125.054146 123.946497 122.934041 122.025357 121.227911 120.547467 119.987479 119.548463 119.227423 119.017345 118.906835 118.879918 118.916058 118.990427 119.074420 119.136442 119.142922 119.059533 118.852546 118.490254 117.944381 117.191387 116.213584 115.000000 113.546917 111.858053 109.944381 107.823588 105.519213 103.059533 100.476255 97.803109 95.074420 92.323760 89.582725 86.879918 84.240169 81.684012 79.227423 76.881797 74.654146 72.547467 70.561244 68.692024 66.934041 65.279831 63.720813 62.247814 60.851510 59.522791 58.253035 57.034299 55.859439 54.722169 53.617063 52.539524 51.489043 50.482059 49.485104 48.498175 47.521267 46.554378 45.597503 44.650639 43.713781 42.786927 41.870073 40.963215 40.066350 39.179475 38.302586 37.435680 36.578755 35.731806 34.894831 34.067827 33.250790 32.443719 31.646610 30.859460 30.082267 29.315028 28.557741 27.810403 27.073011 26.345563 25.628057 24.920490 24.222861 23.535166 22.857405 22.189574 21.531672 20.883697 20.245647 19.617520 18.999315 18.391029 17.792661 17.204209 16.625671 16.057047 15.498334 14.949532 14.410638 13.881651 13.362571 12.853395 12.354123 11.864754 11.385285 10.915717 10.456048 10.006276 9.566402 9.136424 8.716341 8.306153 7.905858 7.515455 7.134945 6.764325 6.403596 6.052757 5.711807 5.380745 5.059572 4.748285 4.446885 4.155371 3.873743 3.602001 3.340143 3.088169 2.846079 2.613873 2.391549 2.179109 1.976550 1.783874 1.601080 1.428167 1.265135 1.111985 0.968715 0.835325 0.711815 0.598186 0.494436 0.400566 0.316575 0.242463 0.178231 0.123877 0.079402 0.044806 0.020088 0.005249 0.000287 0.000266 0.000246 0.000228 0.000211
426.129038 423.289639 420.459377 417.638243 414.826230 412.023329 409.229536 406.444846 403.669254 400.902759 398.145358 395.397050 392.657837 389.927719 387.206698 384.494779 381.791964 379.098258 376.413668 373.738199 371.071859 368.414656 365.766598 363.081323 360.405193 357.738199 355.080334 352.431591 349.791964 347.161445 344.540032 341.927719 339.324503 336.730383 334.145358 331.569425 329.002588 326.444846 323.896203 321.356663 318.826230 316.304910 313.792710 311.289639 308.795705 306.310918 303.835290 301.368833 298.911560 296.463485 294.024625 291.594996 289.174614 286.763498 284.361667 281.969142 279.585942 277.212091 274.847609 272.492521 270.146849 267.810618 265.483854 263.166581 260.858825 258.560613 256.271970 253.992924 251.723502 249.463731 247.213638 244.973251 242.742596 240.521702 238.310596 236.109303 233.917853 231.736271 229.564583 227.402815 225.250994 223.109144 220.977290 218.855456 216.743667 214.641945 212.550313 210.468794 208.397408 206.336176 204.285119 202.244256 200.213605 198.193186 196.183014 194.183108 192.193482 190.214151 188.245132 186.286436 184.338078 182.400069 180.472421 178.555145 176.648251 174.751749 172.865647 170.989954 169.124677 167.269823 165.425399 163.591409 161.767859 159.954753 158.152096 156.359890 154.578139 152.806844 151.046008 149.295632 147.555717 145.826262 144.107269 142.398736 140.700663 139.013049 137.335892 135.669190 134.012941 132.367142 130.731791 129.106884 127.518176 126.247814 125.054146 123.946497 122.934041 122.025357 121.227911 120.547467 119.987479 119.548463 119.227423 119.017345 118.906835 118.879918 118.916058 118.990427 119.074420 119.136442 119.142922 119.059533 118.852546 118.490254 117.944381 117.191387 116.213584 115.000000 113.546917 111.858053 109.944381 107.823588 105.519213 103.059533 100.476255 97.803109 95.074420 92.323760 89.582725 86.879918 84.240169 81.684012 79.227423 76.881797 74.654146 72.547467 70.561244 68.692024 66.934041 65.279831 63.720813 62.247814 60.851510 59.522791 58.253035 57.034299 55.859439 54.722169 53.617063 52.548151 51.529437 50.520813 49.522274 48.533815 47.555430 46.587115 45.628864 44.680673 43.742536 42.814448 41.896405 40.988402 40.090434 39.202497 38.324586 37.456698 36.598826 35.750968 34.913119 34.085276 33.267433 32.459587 31.661735 30.873872 30.095995 29.328100 28.570184 27.822244 27.084275 26.356274 25.638240 24.930167 24.232054 23.543897 22.865693 22.197440 21.539135 20.890774 20.252357 19.623879 19.005339 18.396734 17.798062 17.209320 16.630507 16.061621 15.502658 14.953618 14.414499 13.885298 13.366013 12.856644 12.357188 11.867644 11.388010 10.918284 10.458466 10.008554 9.568546 9.138442 8.718239 8.307938 7.907535 7.517032 7.136426 6.765716 6.404902 6.053982 5.712956 5.381822 5.060581 4.749231 4.447771 4.156201 3.874519 3.602727 3.340822 3.088804 2.846672 2.614427 2.392067 2.179592 1.977001 1.784295 1.601472 1.428533 1.265476 1.112302 0.969010 0.835600 0.712071 0.598423 0.494657 0.400771 0.316766 0.242640 0.178395 0.124030 0.079544 0.044937 0.020210 0.005361 0.000392 0.000363 0.000336 0.000311 0.000287
427.735033 424.908667 422.091206 419.282636 416.482946 413.692126 410.910169 408.137067 405.372815 402.617408 399.870844 397.133122 394.404241 391.684203 388.973011 386.270667 383.577177 380.892547 378.216784 375.549896 372.891892 370.242783 367.602580 364.909450 362.225226 359.549896 356.883450 354.225880 351.577177 348.937333 346.306344 343.684203 341.070908 338.466455 335.870844 333.284075 330.706148 328.137067 325.576836 323.025460 320.482946 317.949303 315.424539 312.908667 310.401699 307.903649 305.414533 302.934366 300.463168 298.000958 295.547757 293.103587 290.668471 288.242434 285.825503 283.417703 281.019063 278.629612 276.249380 273.878398 271.516697 269.164310 266.821271 264.487612 262.163368 259.848575 257.543267 255.247480 252.961249 250.684611 248.417602 246.160259 243.912616 241.674711 239.446579 237.228255 235.019777 232.821177 230.632491 228.453754 226.284998 224.126257 221.977564 219.838949 217.710445 215.592082 213.483889 211.385894 209.298127 207.220613 205.153380 203.096453 201.049855 199.013610 196.987742 194.972271 192.967218 190.972602 188.988443 187.014758 185.051564 183.098877 181.156711 179.225081 177.303999 175.393479 173.493530 171.604164 169.725390 167.857216 165.999651 164.152702 162.316375 160.490675 158.675608 156.871177 155.077386 153.294238 151.521735 149.759878 148.008668 146.268105 144.538190 142.818921 141.110297 139.412316 137.724977 136.048275 134.382210 132.726775 131.081969 129.447786 127.824222 126.247814 125.054146 123.946497 122.934041 122.025357 121.227911 120.547467 119.987479 119.548463 119.227423 119.017345 118.906835 118.879918 118.916058 118.990427 119.074420 119.136442 119.142922 119.059533 118.852546 118.490254 117.944381 117.191387 116.213584 115.000000 113.546917 111.858053 109.944381 107.823588 105.519213 103.059533 100.476255 97.803109 95.074420 92.323760 89.582725 86.879918 84.240169 81.684012 79.227423 76.881797 74.654146 72.547467 70.561244 68.692024 66.934041 65.279831 63.720813 62.247814 60.851510 59.522791 58.253035 57.034299 55.859439 54.722169 53.627710 52.596867 51.576188 50.565666 49.565293 48.575063 47.594969 46.625003 45.665160 44.715432 43.775814 42.846298 41.926879 41.017551 40.118307 39.229141 38.350047 37.481020 36.622055 35.773144 34.934284 34.105469 33.286692 32.477951 31.679238 30.890550 30.111881 29.343228 28.584584 27.835946 27.097310 26.368670 25.650023 24.941365 24.242692 23.554000 22.875284 22.206542 21.547770 20.898964 20.260121 19.631237 19.012310 18.403336 17.804312 17.215236 16.636104 16.066913 15.507662 14.958347 14.418966 13.889517 13.369996 12.860403 12.360734 11.870988 11.391162 10.921255 10.461265 10.011190 9.571028 9.140777 8.720436 8.310003 7.909477 7.518856 7.138139 6.767325 6.406412 6.055399 5.714285 5.383068 5.061749 4.750325 4.448796 4.157160 3.875417 3.603567 3.341607 3.089538 2.847358 2.615068 2.392665 2.180151 1.977523 1.784781 1.601926 1.428955 1.265870 1.112669 0.969351 0.835917 0.712367 0.598698 0.494913 0.401009 0.316986 0.242845 0.178585 0.124206 0.079707 0.045089 0.020350 0.005492 0.000512 0.000474 0.000439 0.000406 0.000376
429.588086 426.777079 423.974709 421.180957 418.395809 415.619250 412.851270 410.091859 407.341009 404.598714 401.864970 399.139774 396.423125 393.715024 391.015474 388.324479 385.642044 382.968177 380.302886 377.646181 374.998073 372.358575 369.727701 367.025242 364.331406 361.646181 358.969552 356.301510 353.642044 350.991146 348.348808 345.715024 343.089792 340.473107 337.864970 335.265381 332.674343 330.091859 327.517937 324.952584 322.395809 319.847624 317.308042 314.777079 312.254752 309.741080 307.236083 304.739783 302.252206 299.773376 297.303322 294.842072 292.389659 289.946113 287.511470 285.085764 282.669031 280.261311 277.862641 275.473063 273.092617 270.721345 268.359291 266.006498 263.663011 261.328874 259.004134 256.688835 254.383024 252.086748 249.800053 247.522984 245.255590 242.997915 240.750006 238.511908 236.283667 234.065327 231.856932 229.658526 227.470152 225.291851 223.123666 220.965635 218.817799 216.680197 214.552864 212.435839 210.329155 208.232848 206.146950 204.071493 202.006508 199.952024 197.908069 195.874671 193.851855 191.839645 189.838066 187.847139 185.866884 183.897323 181.938472 179.990350 178.052973 176.126355 174.210511 172.305453 170.411193 168.527741 166.655107 164.793300 162.942327 161.102196 159.272910 157.454476 155.646898 153.850178 152.064319 150.289322 148.525188 146.771917 145.029508 143.297961 141.577272 139.867440 138.168462 136.480333 134.803049 133.136606 131.480999 129.836221 128.202266 126.579129 125.054146 123.946497 122.934041 122.025357 121.227911 120.547467 119.987479 119.548463 119.227423 119.017345 118.906835 118.879918 118.916058 118.990427 119.074420 119.136442 119.142922 119.059533 118.852546 118.490254 117.944381 117.191387 116.213584 115.000000 113.546917 111.858053 109.944381 107.823588 105.519213 103.059533 100.476255 97.803109 95.074420 92.323760 89.582725 86.879918 84.240169 81.684012 79.227423 76.881797 74.654146 72.547467 70.561244 68.692024 66.934041 65.279831 63.720813 62.247814 60.851510 59.522791 58.253035 57.034299 55.859439 54.728834 53.685430 52.652275 51.629362 50.616680 49.614221 48.621976 47.639936 46.668093 45.706439 44.754964 43.813660 42.882521 41.961537 41.050700 40.150004 39.259440 38.379002 37.508680 36.648470 35.798363 34.958352 34.128432 33.308594 32.498833 31.699142 30.909516 30.129947 29.360430 28.600959 27.851528 27.112132 26.382766 25.663423 24.954099 24.254789 23.565488 22.886190 22.216892 21.557589 20.908276 20.268949 19.639604 19.020237 18.410843 17.811419 17.221962 16.642467 16.072932 15.513352 14.963724 14.424046 13.894314 13.374526 12.864677 12.364767 11.874791 11.394747 10.924634 10.464448 10.014187 9.573849 9.143432 8.722933 8.312351 7.911684 7.520930 7.140088 6.769154 6.408129 6.057010 5.715796 5.384486 5.063077 4.751569 4.449961 4.158251 3.876439 3.604522 3.342501 3.090373 2.848139 2.615797 2.393346 2.180786 1.978116 1.785334 1.602441 1.429436 1.266318 1.113086 0.969740 0.836279 0.712703 0.599011 0.495203 0.401279 0.317237 0.243078 0.178802 0.124407 0.079894 0.045261 0.020510 0.005640 0.000650 0.000602 0.000557 0.000515 0.000476
431.703033 428.910002 426.125301 423.348910 420.580807 417.820974 415.069396 412.326059 409.590951 406.864065 404.145393 401.434932 398.732678 396.038633 393.352797 390.675176 388.005775 385.344602 382.691668 380.046983 377.410562 374.782418 372.162570 369.449085 366.743895 364.046983 361.358334 358.677936 356.005775 353.341843 350.686131 348.038633 345.399345 342.768265 340.145393 337.530732 334.924285 332.326059 329.736062 327.154307 324.580807 322.015577 319.458635 316.910002 314.369700 311.837755 309.314193 306.799045 304.292341 301.794116 299.304406 296.823248 294.350683 291.886752 289.431498 286.984968 284.547208 282.118267 279.698194 277.287041 274.884860 272.491705 270.107630 267.732690 265.366943 263.010444 260.663251 258.325422 255.997015 253.678088 251.368699 249.068907 246.778769 244.498344 242.227688 239.966858 237.715912 235.474904 233.243889 231.022922 228.812055 226.611341 224.420830 222.240572 220.070617 217.911010 215.761800 213.623029 211.494742 209.376981 207.269785 205.173195 203.087246 201.011976 198.947419 196.893608 194.850573 192.818346 190.796953 188.786423 186.786779 184.798047 182.820247 180.853401 178.897529 176.952648 175.018774 173.095923 171.184109 169.283344 167.393640 165.515006 163.647451 161.790983 159.945608 158.111332 156.288159 154.476092 152.675133 150.885285 149.106547 147.338919 145.582399 143.836985 142.102676 140.379466 138.667351 136.966327 135.276388 133.597527 131.929737 130.273012 128.627343 126.992722 125.369140 123.946497 122.934041 122.025357 121.227911 120.547467 119.987479 119.548463 119.227423 119.017345 118.906835 118.879918 118.916058 118.990427 119.074420 119.136442 119.142922 119.059533 118.852546 118.490254 117.944381 117.191387 116.213584 115.000000 113.546917 111.858053 109.944381 107.823588 105.519213 103.059533 100.476255 97.803109 95.074420 92.323760 89.582725 86.879918 84.240169 81.684012 79.227423 76.881797 74.654146 72.547467 70.561244 68.692024 66.934041 65.279831 63.720813 62.247814 60.851510 59.522791 58.253035 57.034299 55.859439 54.796290 53.750201 52.714452 51.689030 50.673924 49.669123 48.674617 47.690394 46.716444 45.752756 44.799320 43.856126 42.923163 42.000423 41.087895 40.185569 39.293437 38.411488 37.539715 36.678107 35.826657 34.985356 34.154195 33.333167 32.522262 31.721474 30.930794 30.150215 29.379729 28.619330 27.869010 27.128762 26.398579 25.678456 24.968385 24.268361 23.578376 22.898426 22.228504 21.568605 20.918723 20.278854 19.648991 19.029129 18.419265 17.819393 17.229508 16.649606 16.079683 15.519735 14.969757 14.429745 13.899696 13.379607 12.869472 12.369290 11.879057 11.398769 10.928424 10.468018 10.017549 9.577014 9.146410 8.725735 8.314986 7.914161 7.523257 7.142273 6.771207 6.410056 6.058818 5.717492 5.386075 5.064567 4.752965 4.451268 4.159475 3.877584 3.605594 3.343503 3.091310 2.849014 2.616615 2.394110 2.181499 1.978781 1.785955 1.603020 1.429975 1.266820 1.113554 0.970175 0.836684 0.713080 0.599362 0.495529 0.401582 0.317519 0.243340 0.179044 0.124632 0.080102 0.045455 0.020690 0.005806 0.000804 0.000744 0.000689 0.000637 0.000589
434.098301 431.326240 428.562170 425.806059 423.057882 420.317614 417.585234 414.860723 412.144065 409.435249 406.734263 404.041102 401.355759 398.678235 396.008529 393.346646 390.692591 388.046372 385.408002 382.777492 380.154857 377.540117 374.933289 372.206783 369.488191 366.777492 364.074668 361.379706 358.692591 356.013312 353.341863 350.678235 348.022426 345.374435 342.734263 340.101915 337.477399 334.860723 332.251900 329.650947 327.057882 324.472726 321.895503 319.326240 316.764968 314.211719 311.666528 309.129434 306.600478 304.079703 301.567155 299.062883 296.566937 294.079372 291.600241 289.129603 286.667516 284.214042 281.769243 279.333184 276.905930 274.487548 272.078107 269.677674 267.286321 264.904117 262.531134 260.167443 257.813116 255.468224 253.132839 250.807033 248.490878 246.184443 243.887800 241.601017 239.324164 237.057308 234.800517 232.553855 230.317388 228.091178 225.875288 223.669777 221.474704 219.290127 217.116102 214.952681 212.799917 210.657861 208.526560 206.406062 204.296412 202.197651 200.109822 198.032963 195.967111 193.912303 191.868571 189.835946 187.814460 185.804139 183.805009 181.817096 179.840421 177.875005 175.920868 173.978027 172.046498 170.126294 168.217430 166.319916 164.433761 162.558975 160.695565 158.843535 157.002891 155.173636 153.355771 151.549298 149.754217 147.970525 146.198221 144.437302 142.687763 140.949599 139.222805 137.507373 135.803296 134.110567 132.429175 130.759112 129.100368 127.452931 125.816790 124.191934 122.934041 122.025357 121.227911 120.547467 119.987479 119.548463 119.227423 119.017345 118.906835 118.879918 118.916058 118.990427 119.074420 119.136442 119.142922 119.059533 118.852546 118.490254 117.944381 117.191387 116.213584 115.000000 113.546917 111.858053 109.944381 107.823588 105.519213 103.059533 100.476255 97.803109 95.074420 92.323760 89.582725 86.879918 84.240169 81.684012 79.227423 76.881797 74.654146 72.547467 70.561244 68.692024 66.934041 65.279831 63.720813 62.247814 60.851510 59.522791 58.253035 57.034299 55.930707 54.871185 53.822116 52.783484 51.755276 50.737478 49.730077 48.733059 47.746411 46.770121 45.804175 44.848562 43.903268 42.968282 42.043591 41.129184 40.225049 39.331175 38.447551 37.574165 36.711006 35.858065 35.015331 34.182794 33.360443 32.548268 31.746261 30.954412 30.172712 29.401151 28.639721 27.888414 27.147220 26.416132 25.695142 24.984242 24.283425 23.592682 22.912007 22.241393 21.580832 20.930319 20.289847 19.659409 19.039000 18.428613 17.828242 17.237883 16.657530 16.087177 15.526819 14.976452 14.436070 13.905670 13.385246 12.874794 12.374311 11.883792 11.403233 10.932630 10.471981 10.021281 9.580527 9.149716 8.728844 8.317910 7.916909 7.525840 7.144699 6.773485 6.412194 6.060824 5.719373 5.387839 5.066221 4.754514 4.452719 4.160834 3.878855 3.606783 3.344615 3.092350 2.849986 2.617522 2.394958 2.182290 1.979519 1.786643 1.603662 1.430574 1.267378 1.114073 0.970659 0.837134 0.713499 0.599751 0.495891 0.401918 0.317831 0.243630 0.179314 0.124882 0.080334 0.045670 0.020889 0.005991 0.000975 0.000902 0.000835 0.000772 0.000714
436.796915 434.049326 431.309349 428.576945 425.852079 423.134717 420.424831 417.722396 415.027390 412.339795 409.659597 406.986783 404.321346 401.663281 399.012588 396.369267 393.733325 391.104769 388.483611 385.869864 383.263545 380.664673 378.073271 375.331340 372.596878 369.869864 367.150277 364.438102 361.733325 359.035934 356.345921 353.663281 350.988012 348.320116 345.659597 343.006462 340.360724 337.722396 335.091498 332.468050 329.852079 327.243612 324.642683 322.049326 319.463582 316.885492 314.315103 311.752464 309.197627 306.650647 304.111584 301.580499 299.057455 296.542520 294.035763 291.537255 289.047071 286.565286 284.091978 281.627228 279.171115 276.723723 274.285135 271.855436 269.434711 267.023048 264.620531 262.227250 259.843290 257.468740 255.103685 252.748213 250.402410 248.066361 245.740151 243.423863 241.117580 238.821384 236.535354 234.259568 231.994105 229.739038 227.494442 225.260387 223.036945 220.824181 218.622163 216.430954 214.250614 212.081204 209.922780 207.775396 205.639106 203.513959 201.400003 199.297284 197.205845 195.125726 193.056967 190.999604 188.953671 186.919201 184.896222 182.884763 180.884849 178.896504 176.919750 174.954606 173.001089 171.059216 169.129000 167.210455 165.303589 163.408412 161.524932 159.653154 157.793081 155.944718 154.108065 152.283122 150.469888 148.668361 146.878536 145.100409 143.333974 141.579224 139.836152 138.104748 136.385002 134.676905 132.980444 131.295608 129.622383 127.960757 126.310716 124.672244 123.045326 122.025357 121.227911 120.547467 119.987479 119.548463 119.227423 119.017345 118.906835 118.879918 118.916058 118.990427 119.074420 119.136442 119.142922 119.059533 118.852546 118.490254 117.944381 117.191387 116.213584 115.000000 113.546917 111.858053 109.944381 107.823588 105.519213 103.059533 100.476255 97.803109 95.074420 92.323760 89.582725 86.879918 84.240169 81.684012 79.227423 76.881797 74.654146 72.547467 70.561244 68.692024 66.934041 65.279831 63.720813 62.247814 60.851510 59.522791 58.253035 57.090040 56.016544 54.953628 53.901276 52.859470 51.828194 50.807432 49.797167 48.797384 47.808067 46.829201 45.860769 44.902759 43.955153 43.017939 42.091101 41.174626 40.268500 39.372708 38.487239 37.612078 36.747213 35.892630 35.048319 34.214266 33.390459 32.576888 31.773540 30.980404 30.197469 29.424725 28.662161 27.909767 27.167532 26.435448 25.713504 25.001691 24.300001 23.608424 22.926951 22.255575 21.594287 20.943079 20.301944 19.670873 19.049861 18.438899 17.837980 17.247099 16.666249 16.095422 15.534615 14.983819 14.443030 13.912243 13.391451 12.880651 12.379836 11.889002 11.408144 10.937259 10.476341 10.025387 9.584392 9.153353 8.732266 8.321127 7.919934 7.528682 7.147369 6.775991 6.414546 6.063032 5.721444 5.389781 5.068040 4.756219 4.454316 4.162328 3.880254 3.608092 3.345839 3.093494 2.851055 2.618521 2.395890 2.183161 1.980332 1.787401 1.604368 1.431232 1.267991 1.114644 0.971191 0.837629 0.713959 0.600180 0.496290 0.402288 0.318175 0.243949 0.179610 0.125157 0.080589 0.045906 0.021108 0.006194 0.001163 0.001076 0.000996 0.000922 0.000852
439.827953 437.109023 434.397292 431.692707 428.995223 426.304796 423.621387 420.944962 418.275491 415.612947 412.957310 410.308561 407.666688 405.031680 402.403533 399.782246 397.167821 394.560265 391.959588 389.365804 386.778931 384.198988 381.625999 378.865654 376.112264 373.365804 370.626255 367.893599 365.167821 362.448913 359.736867 357.031680 354.333355 351.641895 348.957310 346.279614 343.608824 340.944962 338.288053 335.638129 332.995223 330.359374 327.730625 325.109023 322.494620 319.887470 317.287632 314.695171 312.110152 309.532646 306.962726 304.400470 301.845959 299.299275 296.760505 294.229738 291.707065 289.192580 286.686378 284.188557 281.699217 279.218457 276.746381 274.283090 271.828688 269.383279 266.946969 264.519862 262.102062 259.693675 257.294804 254.905552 252.526023 250.156317 247.796535 245.446776 243.107139 240.777717 238.458607 236.149900 233.851686 231.564054 229.287090 227.020877 224.765496 222.521026 220.287543 218.065122 215.853832 213.653742 211.464919 209.287424 207.121317 204.966657 202.823498 200.691891 198.571886 196.463529 194.366864 192.281932 190.208772 188.147419 186.097906 184.060265 182.034524 180.020708 178.018842 176.028946 174.051040 172.085140 170.131261 168.189416 166.259616 164.341869 162.436182 160.542561 158.661009 156.791527 154.934116 153.088774 151.255499 149.434286 147.625129 145.828022 144.042956 142.269922 140.508910 138.759908 137.022903 135.297883 133.584832 131.883736 130.194579 128.517343 126.852012 125.198567 123.556990 122.025357 121.227911 120.547467 119.987479 119.548463 119.227423 119.017345 118.906835 118.879918 118.916058 118.990427 119.074420 119.136442 119.142922 119.059533 118.852546 118.490254 117.944381 117.191387 116.213584 115.000000 113.546917 111.858053 109.944381 107.823588 105.519213 103.059533 100.476255 97.803109 95.074420 92.323760 89.582725 86.879918 84.240169 81.684012 79.227423 76.881797 74.654146 72.547467 70.561244 68.692024 66.934041 65.279831 63.720813 62.247814 60.851510 59.522791 58.275760 57.187701 56.110368 55.043740 53.987797 52.942521 51.907890 50.883887 49.870491 48.867685 47.875450 46.893767 45.922618 44.961987 44.011854 43.072204 42.143020 41.224284 40.315981 39.418094 38.530608 37.653507 36.786776 35.930400 35.084365 34.248655 33.423258 32.608160 31.803346 31.008804 30.224520 29.450483 28.686680 27.933098 27.189726 26.456553 25.733567 25.020757 24.318112 23.625623 22.943279 22.271071 21.608987 20.957020 20.315161 19.683399 19.061727 18.450137 17.848620 17.257168 16.675775 16.104431 15.543132 14.991868 14.450635 13.919424 13.398231 12.887049 12.385872 11.894694 11.413510 10.942316 10.481105 10.029873 9.588615 9.157327 8.736004 8.324643 7.923238 7.531787 7.150285 6.778730 6.417117 6.065443 5.723706 5.391902 5.070028 4.758082 4.456060 4.163962 3.881783 3.609522 3.347176 3.094744 2.852223 2.619612 2.396909 2.184112 1.981219 1.788229 1.605140 1.431952 1.268662 1.115269 0.971772 0.838170 0.714463 0.600648 0.496725 0.402693 0.318551 0.244298 0.179934 0.125457 0.080868 0.046165 0.021348 0.006416 0.001368 0.001267 0.001172 0.001084 0.001003
443.228706 440.543576 437.865200 435.193510 432.528446 429.869949 427.217968 424.572456 421.933370 419.300673 416.674334 414.054326 411.440627 408.833220 406.232095 403.637243 401.048664 398.466359 395.890337 393.320608 390.757190 388.200102 385.649369 382.866768 380.090523 377.320608 374.557003 371.799692 369.048664 366.303910 363.565428 360.833220 358.107294 355.387659 352.674334 349.967340 347.266703 344.572456 341.884635 339.203283 336.528446 333.860177 331.198533 328.543576 325.895372 323.253994 320.619517 317.992023 315.371594 312.758322 310.152298 307.553620 304.962387 302.378703 299.802675 297.234412 294.674027 292.121633 289.577349 287.041291 284.513581 281.994340 279.483691 276.981758 274.488664 272.004535 269.529495 267.063669 264.607181 262.160155 259.722713 257.294977 254.877069 252.469106 250.071207 247.683487 245.306059 242.939036 240.582527 238.236638 235.901474 233.577136 231.263723 228.961331 226.670053 224.389980 222.121197 219.863789 217.617837 215.383417 213.160604 210.949468 208.750078 206.562498 204.386788 202.223006 200.071208 197.931445 195.803764 193.688212 191.584829 189.493656 187.414729 185.348081 183.293741 181.251739 179.222098 177.204842 175.199989 173.207557 171.227562 169.260014 167.304925 165.362303 163.432153 161.514480 159.609285 157.716568 155.836328 153.968560 152.113261 150.270422 148.440036 146.622093 144.816582 143.023490 141.242804 139.474509 137.718588 135.975026 134.243804 132.524902 130.818302 129.123982 127.441921 125.772096 124.114486 122.469066 121.227911 120.547467 119.987479 119.548463 119.227423 119.017345 118.906835 118.879918 118.916058 118.990427 119.074420 119.136442 119.142922 119.059533 118.852546 118.490254 117.944381 117.191387 116.213584 115.000000 113.546917 111.858053 109.944381 107.823588 105.519213 103.059533 100.476255 97.803109 95.074420 92.323760 89.582725 86.879918 84.240169 81.684012 79.227423 76.881797 74.654146 72.547467 70.561244 68.692024 66.934041 65.279831 63.720813 62.247814 60.851510 59.522791 58.386195 57.293824 56.212318 55.141655 54.081809 53.032760 51.994483 50.966956 49.950158 48.944066 47.948658 46.963914 45.989812 45.026332 44.073454 43.131157 42.199422 41.278230 40.367561 39.467397 38.577720 37.698511 36.829753 35.971428 35.123520 34.286011 33.458886 32.642128 31.835722 31.039652 30.253903 29.478461 28.713311 27.958440 27.213832 26.479476 25.755358 25.041465 24.337784 23.644305 22.961014 22.287901 21.624954 20.972162 20.329516 19.697003 19.074616 18.462343 17.860175 17.268104 16.686121 16.114216 15.552382 15.000610 14.458893 13.927224 13.405594 12.893998 12.392427 11.900876 11.419338 10.947808 10.486279 10.034745 9.593202 9.161643 8.740064 8.328460 7.926827 7.535159 7.153453 6.781704 6.419909 6.068063 5.726163 5.394205 5.072187 4.760104 4.457955 4.165735 3.883443 3.611075 3.348628 3.096102 2.853492 2.620798 2.398016 2.185145 1.982183 1.789128 1.605979 1.432733 1.269390 1.115947 0.972403 0.838758 0.715009 0.601156 0.497197 0.403132 0.318958 0.244677 0.180285 0.125783 0.081170 0.046445 0.021608 0.006656 0.001591 0.001473 0.001363 0.001261 0.001166
447.048004 444.403187 441.764661 439.132337 436.506135 433.885976 431.271792 428.663517 426.061093 423.464467 420.873591 418.288426 415.708938 413.135097 410.566882 408.004275 405.447267 402.895853 400.350034 397.809817 395.275213 392.746239 390.222919 387.412906 384.608546 381.809817 379.016701 376.229187 373.447267 370.670942 367.900215 365.135097 362.375605 359.621760 356.873591 354.131133 351.394426 348.663517 345.938459 343.219310 340.506135 337.799004 335.097994 332.403187 329.714670 327.032537 324.356885 321.687817 319.025441 316.369869 313.721218 311.079609 308.445167 305.818018 303.198295 300.586132 297.981665 295.385034 292.796380 290.215847 287.643578 285.079720 282.524419 279.977823 277.440078 274.911332 272.391732 269.881425 267.380556 264.889270 262.407709 259.936016 257.474330 255.022789 252.581529 250.150682 247.730378 245.320746 242.921910 240.533992 238.157110 235.791380 233.436912 231.093815 228.762195 226.442151 224.133780 221.837177 219.552431 217.279628 215.018849 212.770174 210.533675 208.309425 206.097489 203.897930 201.710809 199.536179 197.374094 195.224601 193.087746 190.963570 188.852111 186.753404 184.667479 182.594366 180.534090 178.486674 176.452135 174.430492 172.421758 170.425944 168.443058 166.473109 164.516098 162.572028 160.640898 158.722705 156.817445 154.925112 153.045696 151.179188 149.325576 147.484846 145.656984 143.841972 142.039794 140.250430 138.473860 136.710062 134.959015 133.220694 131.495076 129.782134 128.081843 126.394175 124.719104 123.056600 121.406635 120.547467 119.987479 119.548463 119.227423 119.017345 118.906835 118.879918 118.916058 118.990427 119.074420 119.136442 119.142922 119.059533 118.852546 118.490254 117.944381 117.191387 116.213584 115.000000 113.546917 111.858053 109.944381 107.823588 105.519213 103.059533 100.476255 97.803109 95.074420 92.323760 89.582725 86.879918 84.240169 81.684012 79.227423 76.881797 74.654146 72.547467 70.561244 68.692024 66.934041 65.279831 63.720813 62.247814 60.851510 59.613691 58.505610 57.408573 56.322554 55.247524 54.183457 53.130325 52.088104 51.056766 50.036287 49.026641 48.027802 47.039747 46.062452 45.095892 44.140044 43.194885 42.260392 41.336543 40.423317 39.520691 38.628644 37.747156 36.876206 36.015775 35.165841 34.326388 33.497394 32.678843 31.870715 31.072993 30.285661 29.508700 28.742095 27.985828 27.239886 26.504251 25.778909 25.063845 24.359045 23.664494 22.980181 22.306090 21.642209 20.988527 20.345029 19.711706 19.088544 18.475534 17.872663 17.279923 16.697302 16.124790 15.562378 15.010058 14.467819 13.935653 13.413552 12.901507 12.399511 11.907557 11.425637 10.953743 10.491870 10.040010 9.598158 9.166307 8.744451 8.332586 7.930705 7.538803 7.156876 6.784918 6.422925 6.070893 5.728818 5.396694 5.074520 4.762290 4.460002 4.167652 3.885236 3.612753 3.350198 3.097569 2.854863 2.622078 2.399212 2.186261 1.983225 1.790100 1.606885 1.433577 1.270176 1.116680 0.973086 0.839393 0.715600 0.601705 0.497708 0.403606 0.319399 0.245086 0.180665 0.126136 0.081497 0.046749 0.021889 0.006917 0.001832 0.001696 0.001570 0.001452 0.001343
451.351585 448.755655 446.165561 443.581188 441.002427 438.429175 435.861336 433.298821 430.741547 428.189438 425.642427 423.100451 420.563456 418.031395 415.504229 412.981925 410.464457 407.951808 405.443966 402.940927 400.442693 397.949273 395.460684 392.615940 389.776026 386.940927 384.110633 381.285141 378.464457 375.648591 372.837562 370.031395 367.230122 364.433784 361.642427 358.856105 356.074880 353.298821 350.528003 347.762508 345.002427 342.247855 339.498894 336.755655 334.018251 331.286804 328.561441 325.842292 323.129496 320.423194 317.723532 315.030660 312.344733 309.665909 306.994348 304.330213 301.673671 299.024890 296.384039 293.751290 291.126815 288.510787 285.903378 283.304762 280.715112 278.134600 275.563397 273.001672 270.449594 267.907330 265.375043 262.852897 260.341049 257.839658 255.348875 252.868853 250.399737 247.941671 245.494795 243.059244 240.635150 238.222642 235.821842 233.432871 231.055842 228.690867 226.338053 223.997500 221.669307 219.353565 217.050365 214.759789 212.481917 210.216824 207.964582 205.725257 203.498910 201.285601 199.085384 196.898307 194.724418 192.563758 190.416366 188.282276 186.161520 184.054124 181.960114 179.879510 177.812329 175.758587 173.718294 171.691459 169.678088 167.678184 165.691748 163.718778 161.759269 159.813215 157.880607 155.961434 154.055684 152.163341 150.284389 148.418810 146.566584 144.727690 142.902104 141.089802 139.290759 137.504948 135.732342 133.972910 132.226624 130.493451 128.773362 127.066321 125.372298 123.691257 122.023163 120.547467 119.987479 119.548463 119.227423 119.017345 118.906835 118.879918 118.916058 118.990427 119.074420 119.136442 119.142922 119.059533 118.852546 118.490254 117.944381 117.191387 116.213584 115.000000 113.546917 111.858053 109.944381 107.823588 105.519213 103.059533 100.476255 97.803109 95.074420 92.323760 89.582725 86.879918 84.240169 81.684012 79.227423 76.881797 74.654146 72.547467 70.561244 68.692024 66.934041 65.279831 63.720813 62.247814 60.871993 59.747472 58.634196 57.532132 56.441248 55.361514 54.292898 53.235370 52.188899 51.153456 50.129012 49.115537 48.113004 47.121383 46.140648 45.170770 44.211724 43.263483 42.326021 41.399312 40.483331 39.578054 38.683457 37.799515 36.926205 36.063505 35.211392 34.369844 33.538839 32.718357 31.908376 31.108877 30.319839 29.541244 28.773072 28.015305 27.267924 26.530913 25.804254 25.087930 24.381924 23.686222 23.000807 22.325664 21.660779 21.006137 20.361724 19.727527 19.103533 18.489729 17.886102 17.292641 16.709333 16.136169 15.573136 15.020224 14.477423 13.944723 13.422114 12.909588 12.407135 11.914746 11.432414 10.960130 10.497886 10.045676 9.603491 9.171326 8.749172 8.337025 7.934878 7.542724 7.160559 6.788376 6.426171 6.073939 5.731674 5.399373 5.077030 4.764642 4.462205 4.169714 3.887166 3.614558 3.351886 3.099147 2.856338 2.623456 2.400499 2.187462 1.984345 1.791145 1.607859 1.434486 1.271023 1.117468 0.973820 0.840076 0.716235 0.602296 0.498257 0.404117 0.319874 0.245526 0.181074 0.126515 0.081849 0.047075 0.022191 0.007197 0.002092 0.001937 0.001792 0.001658 0.001533
456.231283 453.696086 451.166344 448.641904 446.122621 443.608356 441.098978 438.594362 436.094390 433.598954 431.107952 428.621290 426.138883 423.660655 421.186537 418.716469 416.250400 413.788287 411.330097 408.875803 406.425388 403.978843 401.536168 398.645510 395.758721 392.875803 389.996764 387.121621 384.250400 381.383136 378.519870 375.660655 372.805550 369.954623 367.107952 364.265621 361.427724 358.594362 355.765645 352.941690 350.122621 347.308570 344.499677 341.696086 338.897950 336.105426 333.318678 330.537874 327.763190 324.994802 322.232894 319.477652 316.729266 313.987929 311.253835 308.527183 305.808172 303.097001 300.393874 297.698991 295.012555 292.334768 289.665831 287.005944 284.355308 281.714118 279.082572 276.460861 273.849177 271.247708 268.656638 266.076149 263.506419 260.947621 258.399926 255.863500 253.338505 250.825096 248.323428 245.833648 243.355898 240.890317 238.437038 235.996189 233.567893 231.152267 228.749425 226.359473 223.982515 221.618648 219.267964 216.930550 214.606488 212.295855 209.998724 207.715163 205.445234 203.188995 200.946500 198.717798 196.502934 194.301948 192.114876 189.941752 187.782602 185.637453 183.506323 181.389232 179.286192 177.197214 175.122305 173.061469 171.014707 168.982018 166.963396 164.958835 162.968324 160.991852 159.029404 157.080963 155.146511 153.226026 151.319486 149.426866 147.548141 145.683282 143.832259 141.995044 140.171602 138.361901 136.565906 134.783582 133.014892 131.259799 129.518263 127.790246 126.075707 124.374607 122.686902 121.012552 119.987479 119.548463 119.227423 119.017345 118.906835 118.879918 118.916058 118.990427 119.074420 119.136442 119.142922 119.059533 118.852546 118.490254 117.944381 117.191387 116.213584 115.000000 113.546917 111.858053 109.944381 107.823588 105.519213 103.059533 100.476255 97.803109 95.074420 92.323760 89.582725 86.879918 84.240169 81.684012 79.227423 76.881797 74.654146 72.547467 70.561244 68.692024 66.934041 65.279831 63.720813 62.247814 61.021303 59.891019 58.772164 57.664702 56.568596 55.483811 54.410312 53.348063 52.297031 51.257181 50.228481 49.210897 48.204398 47.208950 46.224523 45.251086 44.288609 43.337060 42.396411 41.466634 40.547698 39.639577 38.742242 37.855668 36.979827 36.114694 35.260242 34.416447 33.583285 32.760732 31.948763 31.147357 30.356491 29.576142 28.806290 28.046913 27.297990 26.559503 25.831431 25.113755 24.406458 23.709520 23.022924 22.346652 21.680690 21.025019 20.379625 19.744492 19.119604 18.504949 17.900511 17.306277 16.722234 16.148369 15.584670 15.031124 14.487720 13.954448 13.431295 12.918252 12.415308 11.922454 11.439680 10.966977 10.504337 10.051750 9.609210 9.176707 8.754234 8.341785 7.939352 7.546928 7.164508 6.792084 6.429652 6.077205 5.734737 5.402245 5.079722 4.767164 4.464567 4.171925 3.889236 3.616494 3.353697 3.100840 2.857920 2.624934 2.401878 2.188750 1.985547 1.792266 1.608905 1.435460 1.271930 1.118313 0.974607 0.840808 0.716917 0.602930 0.498846 0.404664 0.320382 0.245999 0.181512 0.126922 0.082226 0.047424 0.022515 0.007497 0.002370 0.002194 0.002030 0.001878 0.001737
461.822009 459.364991 456.913277 454.466667 452.024968 449.587991 447.155556 444.727488 442.303621 439.883796 437.467862 435.055676 432.647105 430.242023 427.840316 425.441875 423.046606 420.654421 418.265243 415.879004 413.495649 411.115129 408.737407 405.781795 402.828982 399.879004 396.931909 393.987754 391.046606 388.108542 385.173649 382.242023 379.313772 376.389010 373.467862 370.550463 367.636955 364.727488 361.822223 358.921324 356.024968 353.133334 350.246610 347.364991 344.488676 341.617869 338.752781 335.893625 333.040621 330.193990 327.353957 324.520749 321.694596 318.875729 316.064382 313.260786 310.465177 307.677788 304.898853 302.128603 299.367271 296.615086 293.872275 291.139064 288.415676 285.702331 282.999244 280.306630 277.624697 274.953650 272.293690 269.645014 267.007812 264.382272 261.768576 259.166899 256.577413 254.000283 251.435670 248.883729 246.344608 243.818450 241.305392 238.805567 236.319099 233.846110 231.386712 228.941015 226.509121 224.091127 221.687124 219.297199 216.921430 214.559894 212.212660 209.879792 207.561350 205.257386 202.967952 200.693091 198.432843 196.187244 193.956323 191.740109 189.538622 187.351881 185.179902 183.022693 180.880263 178.752615 176.639748 174.541660 172.458345 170.389792 168.335991 166.296925 164.272578 162.262929 160.267957 158.287636 156.321939 154.370838 152.434303 150.512300 148.604795 146.711752 144.833134 142.968902 141.119016 139.283435 137.462115 135.655013 133.862085 132.083284 130.318565 128.567880 126.831182 125.108420 123.399548 121.704513 120.023267 119.548463 119.227423 119.017345 118.906835 118.879918 118.916058 118.990427 119.074420 119.136442 119.142922 119.059533 118.852546 118.490254 117.944381 117.191387 116.213584 115.000000 113.546917 111.858053 109.944381 107.823588 105.519213 103.059533 100.476255 97.803109 95.074420 92.323760 89.582725 86.879918 84.240169 81.684012 79.227423 76.881797 74.654146 72.547467 70.561244 68.692024 66.934041 65.279831 63.720813 62.329156 61.181032 60.044577 58.919750 57.806508 56.704811 55.614620 54.535893 53.468592 52.412678 51.368112 50.334858 49.312877 48.302134 47.302592 46.314215 45.336970 44.370821 43.415734 42.471677 41.538616 40.616520 39.705356 38.805095 37.915705 37.037156 36.169420 35.312468 34.466271 33.630802 32.806033 31.991940 31.188494 30.395672 29.613449 28.841800 28.080702 27.330131 26.590065 25.860483 25.141362 24.432683 23.734423 23.046565 22.369088 21.701973 21.045203 20.398759 19.762625 19.136783 18.521218 17.915913 17.320853 16.736023 16.161410 15.596998 15.042775 14.498727 13.964842 13.441108 12.927513 12.424044 11.930693 11.447447 10.974296 10.511232 10.058243 9.615321 9.182458 8.759644 8.346872 7.944134 7.551422 7.168729 6.796047 6.433372 6.080695 5.738011 5.405314 5.082599 4.769859 4.467091 4.174289 3.891448 3.618563 3.355632 3.102649 2.859610 2.626513 2.403353 2.190127 1.986831 1.793464 1.610022 1.436501 1.272900 1.119217 0.975448 0.841591 0.717645 0.603607 0.499476 0.405249 0.320926 0.246503 0.181981 0.127357 0.082630 0.047798 0.022862 0.007818 0.002667 0.002469 0.002285 0.002114 0.001955
468.336567 465.985835 463.640919 461.301570 458.967539 456.638582 454.314459 451.994935 449.679781 447.368772 445.061690 442.758324 440.458470 438.161929 435.868514 433.578043 431.290342 429.005250 426.722612 424.442282 422.164126 419.888019 417.613848 414.554686 411.497459 408.442282 405.389278 402.338584 399.290342 396.244709 393.201847 390.161929 387.125136 384.091658 381.061690 378.035439 375.013114 371.994935 368.981126 365.971915 362.967539 359.968237 356.974253 353.985835 351.003234 348.026705 345.056504 342.092891 339.136126 336.186470 333.244186 330.309537 327.382785 324.464192 321.554020 318.652529 315.759976 312.876619 310.002711 307.138504 304.284246 301.440182 298.606553 295.783597 292.971548 290.170634 287.381080 284.603106 281.836925 279.082748 276.340779 273.611215 270.894250 268.190070 265.498857 262.820786 260.156025 257.504737 254.867079 252.243201 249.633247 247.037355 244.455657 241.888277 239.335335 236.796943 234.273208 231.764231 229.270105 226.790920 224.326757 221.877694 219.443801 217.025144 214.621782 212.233771 209.861159 207.503990 205.162303 202.836132 200.525507 198.230452 195.950988 193.687129 191.438889 189.206273 186.989287 184.787928 182.602195 180.432078 178.277568 176.138650 174.015308 171.907520 169.815264 167.738515 165.677243 163.631419 161.601009 159.585979 157.586290 155.601903 153.632777 151.678870 149.740136 147.816530 145.908003 144.014508 142.135993 140.272407 138.423699 136.589814 134.770698 132.966296 131.176551 129.401408 127.640809 125.894696 124.163010 122.445694 120.742687 119.548463 119.227423 119.017345 118.906835 118.879918 118.916058 118.990427 119.074420 119.136442 119.142922 119.059533 118.852546 118.490254 117.944381 117.191387 116.213584 115.000000 113.546917 111.858053 109.944381 107.823588 105.519213 103.059533 100.476255 97.803109 95.074420 92.323760 89.582725 86.879918 84.240169 81.684012 79.227423 76.881797 74.654146 72.547467 70.561244 68.692024 66.934041 65.279831 63.720813 62.506396 61.351464 60.208418 59.077211 57.957798 56.850131 55.754167 54.669859 53.597164 52.536038 51.486438 50.448323 49.421649 48.406377 47.402465 46.409874 45.428564 44.458497 43.499636 42.551941 41.615378 40.689910 39.775501 38.872117 37.979723 37.098287 36.227775 35.368155 34.519395 33.681465 32.854335 32.037974 31.232354 30.437447 29.653224 28.879659 28.116726 27.364397 26.622649 25.891456 25.170794 24.460641 23.760973 23.071769 22.393005 21.724663 21.066720 20.419158 19.781956 19.155096 18.538561 17.932331 17.336391 16.750723 16.175311 15.610140 15.055195 14.510460 13.975923 13.451569 12.937384 12.433357 11.939475 11.455726 10.982098 10.518581 10.065164 9.621837 9.188589 8.765411 8.352295 7.949231 7.556212 7.173228 6.800272 6.437337 6.084415 5.741501 5.408586 5.085665 4.772732 4.469782 4.176808 3.893805 3.620769 3.357694 3.104577 2.861412 2.628196 2.404925 2.191594 1.988201 1.794741 1.611212 1.437611 1.273934 1.120180 0.976344 0.842426 0.718421 0.604329 0.500147 0.405873 0.321505 0.247041 0.182480 0.127820 0.083059 0.048197 0.023231 0.008160 0.002984 0.002763 0.002557 0.002365 0.002187
476.148711 473.956202 471.772142 469.596299 467.428442 465.268345 463.115781 460.970526 458.832360 456.701065 454.576426 452.458233 450.346278 448.240358 446.140274 444.045831 441.956839 439.873112 437.794472 435.720741 433.651752 431.587339 429.527344 426.254005 422.985085 419.720741 416.461138 413.206446 409.956839 406.712497 403.473607 400.240358 397.012945 393.791566 390.576426 387.367731 384.165693 380.970526 377.782447 374.601678 371.428442 368.262965 365.105475 361.956202 358.815378 355.683234 352.560006 349.445926 346.341231 343.246155 340.160932 337.085798 334.020984 330.966723 327.923246 324.890782 321.869557 318.859797 315.861724 312.875557 309.901512 306.939803 303.990638 301.054224 298.130762 295.220449 292.323480 289.440041 286.570317 283.714487 280.872725 278.045198 275.232071 272.433500 269.649640 266.880635 264.126627 261.387751 258.664137 255.955908 253.263182 250.586071 247.924681 245.279112 242.649458 240.035808 237.438244 234.856843 232.291678 229.742812 227.210308 224.694218 222.194594 219.711478 217.244911 214.794925 212.361549 209.944809 207.544723 205.161306 202.794568 200.444516 198.111151 195.794471 193.494470 191.211138 188.944462 186.694423 184.461002 182.244174 180.043912 177.860188 175.692967 173.542214 171.407891 169.289958 167.188370 165.103083 163.034050 160.981221 158.944545 156.923969 154.919437 152.930894 150.958283 149.001543 147.060614 145.135436 143.225945 141.332077 139.453769 137.590955 135.743568 133.911542 132.094810 130.293303 128.506954 126.735693 124.979451 123.238159 121.511747 119.800145 119.227423 119.017345 118.906835 118.879918 118.916058 118.990427 119.074420 119.136442 119.142922 119.059533 118.852546 118.490254 117.944381 117.191387 116.213584 115.000000 113.546917 111.858053 109.944381 107.823588 105.519213 103.059533 100.476255 97.803109 95.074420 92.323760 89.582725 86.879918 84.240169 81.684012 79.227423 76.881797 74.654146 72.547467 70.561244 68.692024 66.934041 65.279831 63.869464 62.695102 61.532912 60.382841 59.244836 58.118846 57.004819 55.902703 54.812450 53.734008 52.667331 51.612370 50.569076 49.537405 48.517309 47.508744 46.511665 45.526028 44.551791 43.588910 42.637344 41.697052 40.767994 39.850130 38.943423 38.047832 37.163322 36.289855 35.427396 34.575910 33.735362 32.905718 32.086945 31.279011 30.481885 29.695535 28.919931 28.155044 27.400846 26.657307 25.924401 25.202100 24.490379 23.789213 23.098576 22.418445 21.748796 21.089606 20.440853 19.802516 19.174574 18.557006 17.949794 17.352917 16.766357 16.190096 15.624118 15.068404 14.522939 13.987708 13.462694 12.947883 12.443261 11.948815 11.464531 10.990396 10.526398 10.072525 9.628765 9.195109 8.771545 8.358063 7.954653 7.561306 7.178013 6.804765 6.441554 6.088372 5.745212 5.412066 5.088926 4.775788 4.472643 4.179487 3.896312 3.623115 3.359888 3.106628 2.863329 2.629986 2.406596 2.193154 1.989657 1.796099 1.612479 1.438791 1.275034 1.121204 0.977298 0.843313 0.719247 0.605097 0.500861 0.406536 0.322121 0.247613 0.183011 0.128313 0.083516 0.048621 0.023624 0.008524 0.003321 0.003075 0.002845 0.002632 0.002434
486.045933 484.134093 482.242590 480.372121 478.523506 476.697705 474.895853 473.119285 471.369591 469.648665 467.958787 466.302721 464.683854 463.106394 461.575643 460.098417 458.683680 457.343581 456.095217 454.963905 453.989857 453.243990 452.875145 447.910657 443.323190 438.963905 434.761884 430.676914 426.683680 422.765084 418.908977 415.106394 411.350521 407.636054 403.958787 400.315331 396.702924 393.119285 389.562519 386.031039 382.523506 379.038788 375.575923 372.134093 368.712600 365.310846 361.928324 358.564601 355.219310 351.892140 348.582828 345.291155 342.016942 338.760039 335.520328 332.297715 329.092130 325.903521 322.731854 319.577111 316.439286 313.318385 310.214424 307.127429 304.057431 301.004468 297.968584 294.949826 291.948246 288.963898 285.996837 283.047119 280.114803 277.199946 274.302605 271.422837 268.560697 265.716239 262.889515 260.080575 257.289465 254.516231 251.760914 249.023553 246.304184 243.602839 240.919547 238.254334 235.607220 232.978225 230.367363 227.774644 225.200076 222.643663 220.105403 217.585293 215.083325 212.599489 210.133770 207.686149 205.256605 202.845113 200.451646 198.076171 195.718656 193.379062 191.057349 188.753475 186.467394 184.199058 181.948416 179.715415 177.500000 175.302114 173.121697 170.958687 168.813023 166.684637 164.573464 162.479436 160.402483 158.342533 156.299515 154.273355 152.263979 150.271310 148.295273 146.335790 144.392783 142.466173 140.555881 138.661827 136.783930 134.922111 133.076287 131.246377 129.432300 127.633974 125.851317 124.084247 122.332682 120.596540 119.227423 119.017345 118.906835 118.879918 118.916058 118.990427 119.074420 119.136442 119.142922 119.059533 118.852546 118.490254 117.944381 117.191387 116.213584 115.000000 113.546917 111.858053 109.944381 107.823588 105.519213 103.059533 100.476255 97.803109 95.074420 92.323760 89.582725 86.879918 84.240169 81.684012 79.227423 76.881797 74.654146 72.547467 70.561244 68.692024 66.934041 65.279831 64.077975 62.895636 61.725724 60.568179 59.422943 58.289957 57.169164 56.060507 54.963930 53.879379 52.806800 51.746137 50.697340 49.660355 48.635133 47.621622 46.619773 45.629538 44.650867 43.683716 42.728036 41.783782 40.850911 39.929377 39.019138 38.120151 37.232376 36.355771 35.490297 34.635914 33.792584 32.960271 32.138936 31.328545 30.529062 29.740453 28.962685 28.195724 27.439540 26.694100 25.959374 25.235333 24.521948 23.819190 23.127033 22.445449 21.774413 21.113899 20.463883 19.824341 19.195249 18.576586 17.968329 17.370458 16.782951 16.205790 15.638954 15.082425 14.536185 14.000216 13.474502 12.959027 12.453774 11.958729 11.473876 10.999203 10.534694 10.080337 9.636120 9.202029 8.778054 8.364184 7.960407 7.566712 7.183091 6.809533 6.446030 6.092572 5.749151 5.415759 5.092388 4.779031 4.475681 4.182330 3.898974 3.625604 3.362216 3.108804 2.865362 2.631886 2.408370 2.194810 1.991202 1.797541 1.613822 1.440044 1.276201 1.122291 0.978310 0.844255 0.720123 0.605912 0.501618 0.407240 0.322775 0.248221 0.183575 0.128836 0.084002 0.049070 0.024041 0.008910 0.003679 0.003406 0.003152 0.002916 0.002696
500.504299 499.405995 498.451456 497.685151 497.182082 497.088094 497.774167 501.772247 500.894694 498.017725 495.151212 492.295272 489.450014 486.615538 483.791935 480.979288 478.177671 475.387151 472.607789 469.839636 467.082740 464.337139 461.602868 459.003806 456.416073 453.839636 451.274455 448.720485 446.177671 443.645955 441.125269 438.615538 436.116681 433.628605 431.151212 428.684392 426.228027 421.772247 412.440833 406.421427 401.182082 396.351818 391.784789 387.405995 383.170966 379.050858 375.025764 371.081304 367.206719 363.393739 359.635864 355.927891 352.265589 348.645481 345.064670 341.520725 338.011589 334.535509 331.090979 327.676703 324.291560 320.934570 317.604884 314.301752 311.024520 307.772609 304.545509 301.342768 298.163985 295.008802 291.876903 288.768002 285.681845 282.618203 279.576871 276.557662 273.560407 270.584954 267.631162 264.698901 261.788055 258.898512 256.030171 253.182934 250.356713 247.551419 244.766972 242.003293 239.260304 236.537931 233.836101 231.154743 228.493786 225.853158 223.232790 220.632611 218.052550 215.492535 212.952496 210.432359 207.932050 205.451495 202.990619 200.549344 198.127593 195.725286 193.342345 190.978686 188.634228 186.308887 184.002578 181.715216 179.446712 177.196980 174.965929 172.753470 170.559513 168.383964 166.226732 164.087724 161.966845 159.864001 157.779096 155.712035 153.662722 151.631060 149.616952 147.620301 145.641010 143.678981 141.734117 139.806319 137.895490 136.001532 134.124347 132.263838 130.419908 128.592458 126.781392 124.986613 123.208026 121.445533 119.699039 119.017345 118.906835 118.879918 118.916058 118.990427 119.074420 119.136442 119.142922 119.059533 118.852546 118.490254 117.944381 117.191387 116.213584 115.000000 113.546917 111.858053 109.944381 107.823588 105.519213 103.059533 100.476255 97.803109 95.074420 92.323760 89.582725 86.879918 84.240169 81.684012 79.227423 76.881797 74.654146 72.547467 70.561244 68.692024 66.934041 65.502797 64.299217 63.108402 61.930286 60.764802 59.611884 58.471467 57.343489 56.227886 55.124596 54.033558 52.954712 51.887998 50.833358 49.790735 48.760071 47.741312 46.734401 45.739286 44.755913 43.784230 42.824186 41.875730 40.938813 40.013386 39.099402 38.196814 37.305575 36.425642 35.556970 34.699516 33.853237 33.018093 32.194042 31.381045 30.579064 29.788060 29.007997 28.238838 27.480548 26.733092 25.996438 25.270552 24.555403 23.850959 23.157190 22.474066 21.801560 21.139643 20.488287 19.847468 19.217158 18.597334 17.987971 17.389046 16.800536 16.222419 15.654675 15.097281 14.550220 14.013470 13.487015 12.970835 12.464913 11.969233 11.483779 11.008534 10.543484 10.088615 9.643912 9.209362 8.784952 8.370670 7.966503 7.572441 7.188472 6.814586 6.450772 6.097021 5.753324 5.419672 5.096055 4.782467 4.478899 4.185343 3.901793 3.628242 3.364683 3.111110 2.867517 2.633899 2.410250 2.196565 1.992839 1.799068 1.615246 1.441371 1.277438 1.123443 0.979382 0.845253 0.721052 0.606775 0.502421 0.407986 0.323468 0.248864 0.184172 0.129390 0.084515 0.049547 0.024482 0.009320 0.004058 0.003757 0.003477 0.003216 0.002974
524.269407 521.314246 518.368229 515.431559 512.504426 509.587010 506.679479 503.781991 500.894694 498.017725 495.151212 492.295272 489.450014 486.615538 483.791935 480.979288 478.177671 475.387151 472.607789 469.839636 467.082740 464.337139 461.602868 459.003806 456.416073 453.839636 451.274455 448.720485 446.177671 443.645955 441.125269 438.615538 436.116681 433.628605 431.151212 428.684392 426.228027 423.781991 421.346145 418.920343 416.504426 414.098226 411.701563 409.314246 406.936073 404.566832 402.206295 399.854227 394.751094 384.853894 378.466388 372.965673 367.935216 363.209474 358.702802 354.364208 350.160500 346.068701 342.072162 338.158394 334.317763 330.542673 326.827021 323.165828 319.554978 315.991029 312.471076 308.992644 305.553607 302.152129 298.786614 295.455663 292.158051 288.892691 285.658621 282.454983 279.281009 276.136010 273.019363 269.930505 266.868925 263.834157 260.825774 257.843384 254.886626 251.955166 249.048695 246.166922 243.309579 240.476412 237.667181 234.881661 232.119638 229.380908 226.665275 223.972554 221.302563 218.655131 216.030089 213.427274 210.846528 208.287697 205.750628 203.235175 200.741192 198.268535 195.817065 193.386641 190.977128 188.588387 186.220287 183.872692 181.545470 179.238491 176.951624 174.684739 172.437707 170.210401 168.002692 165.814454 163.645560 161.495885 159.365304 157.253691 155.160924 153.086878 151.031430 148.994459 146.975843 144.975460 142.993191 141.028914 139.082511 137.153864 135.242854 133.349364 131.473278 129.614480 127.772855 125.948289 124.140667 122.349878 120.575808 119.017345 118.906835 118.879918 118.916058 118.990427 119.074420 119.136442 119.142922 119.059533 118.852546 118.490254 117.944381 117.191387 116.213584 115.000000 113.546917 111.858053 109.944381 107.823588 105.519213 103.059533 100.476255 97.803109 95.074420 92.323760 89.582725 86.879918 84.240169 81.684012 79.227423 76.881797 74.654146 72.547467 70.561244 68.692024 66.972540 65.746531 64.533660 63.333850 62.147027 60.973119 59.812051 58.663752 57.528152 56.405182 55.294772 54.196855 53.111365 52.038235 50.977402 49.928802 48.892371 47.868049 46.855775 45.855489 44.867133 43.890649 42.925981 41.973073 41.031870 40.102319 39.184368 38.277965 37.383059 36.499601 35.627543 34.766836 33.917435 33.079293 32.252366 31.436611 30.631984 29.838444 29.055951 28.284465 27.523946 26.774358 26.035662 25.307823 24.590806 23.884577 23.189102 22.504349 21.830287 21.166884 20.514112 19.871940 19.240342 18.619289 18.008755 17.408715 16.819143 16.240015 15.671309 15.113001 14.565070 14.027495 13.500254 12.983329 12.476700 11.980348 11.494257 11.018408 10.552786 10.097374 9.652157 9.217120 8.792250 8.377532 7.972954 7.578502 7.194165 6.819932 6.455790 6.101729 5.757740 5.423812 5.099936 4.786102 4.482303 4.188531 3.904776 3.631033 3.367293 3.113550 2.869797 2.636029 2.412239 2.198421 1.994571 1.800684 1.616753 1.442775 1.278746 1.124661 0.980517 0.846309 0.722034 0.607689 0.503270 0.408775 0.324201 0.249545 0.184804 0.129976 0.085059 0.050051 0.024949 0.009753 0.004459 0.004128 0.003820 0.003534 0.003268
524.269407 521.314246 518.368229 515.431559 512.504426 509.587010 506.679479 503.781991 500.894694 498.017725 495.151212 492.295272 489.450014 486.615538 483.791935 480.979288 478.177671 475.387151 472.607789 469.839636 467.082740 464.337139 461.602868 459.003806 456.416073 453.839636 451.274455 448.720485 446.177671 443.645955 441.125269 438.615538 436.116681 433.628605 431.151212 428.684392 426.228027 423.781991 421.346145 418.920343 416.504426 414.098226 411.701563 409.314246 406.936073 404.566832 402.206295 399.854227 397.510378 395.174488 392.846282 390.525477 388.211774 385.904864 383.604426 381.310128 379.021625 368.812065 361.039596 354.920236 349.502590 344.502503 339.789055 335.289210 330.957383 326.762919 322.684072 318.704781 314.812808 310.998591 307.254500 303.574343 299.953022 296.386282 292.870538 289.402736 285.980254 282.600823 279.262466 275.963449 272.702242 269.477488 266.287979 263.132632 260.010471 256.920616 253.862268 250.834699 247.837243 244.869289 241.930274 239.019676 236.137014 233.281836 230.453723 227.652281 224.877140 222.127950 219.404382 216.706120 214.032869 211.384342 208.760268 206.160385 203.584443 201.032199 198.503421 195.997882 193.515362 191.055649 188.618536 186.203820 183.811304 181.440796 179.092106 176.765051 174.459448 172.175119 169.911889 167.669586 165.448041 163.247085 161.066556 158.906289 156.766126 154.645907 152.545476 150.464680 148.403365 146.361381 144.338579 142.334812 140.349933 138.383799 136.436266 134.507195 132.596444 130.703877 128.829356 126.972746 125.133912 123.312724 121.509049 119.722757 118.906835 118.879918 118.916058 118.990427 119.074420 119.136442 119.142922 119.059533 118.852546 118.490254 117.944381 117.191387 116.213584 115.000000 113.546917 111.858053 109.944381 107.823588 105.519213 103.059533 100.476255 97.803109 95.074420 92.323760 89.582725 86.879918 84.240169 81.684012 79.227423 76.881797 74.654146 72.547467 70.561244 68.692024 67.240738 66.004552 64.781826 63.572478 62.376425 61.193585 60.023879 58.867227 57.723551 56.592775 55.474822 54.369618 53.277091 52.197166 51.129774 50.074844 49.032308 48.002096 46.984144 45.978385 44.984754 44.003189 43.033627 42.076008 41.130270 40.196356 39.274208 38.363769 37.464983 36.577796 35.702156 34.838008 33.985304 33.143992 32.314023 31.495350 30.687926 29.891705 29.106643 28.332696 27.569820 26.817976 26.077122 25.347218 24.628227 23.920110 23.222832 22.536357 21.860649 21.195677 20.541406 19.897805 19.264844 18.642492 18.030720 17.429501 16.838807 16.258612 15.688889 15.129615 14.580765 14.042316 13.514246 12.996532 12.489155 11.992094 11.505329 11.028842 10.562615 10.106630 9.660870 9.225319 8.799962 8.384784 7.979771 7.584908 7.200182 6.825581 6.461092 6.106704 5.762406 5.428187 5.104036 4.789944 4.485901 4.191899 3.907929 3.633982 3.370051 3.116128 2.872207 2.638280 2.414341 2.200383 1.996402 1.802391 1.618345 1.444259 1.280129 1.125949 0.981715 0.847424 0.723072 0.608654 0.504168 0.409609 0.324975 0.250264 0.185472 0.130596 0.085634 0.050584 0.025443 0.010210 0.004882 0.004520 0.004183 0.003870 0.003578
524.269407 521.314246 518.368229 515.431559 512.504426 509.587010 506.679479 503.781991 500.894694 498.017725 495.151212 492.295272 489.450014 486.615538 483.791935 480.979288 478.177671 475.387151 472.607789 469.839636 467.082740 464.337139 461.602868 459.003806 456.416073 453.839636 451.274455 448.720485 446.177671 443.645955 441.125269 438.615538 436.116681 433.628605 431.151212 428.684392 426.228027 423.781991 421.346145 418.920343 416.504426 414.098226 411.701563 409.314246 406.936073 404.566832 402.206295 399.854227 397.510378 395.174488 392.846282 390.525477 388.211774 385.904864 383.604426 381.310128 379.021625 376.738560 374.460568 372.187270 369.918277 367.653192 365.391607 363.133104 353.927462 345.262302 338.801004 333.174318 328.028343 323.207229 318.626023 314.232444 309.991651 305.879085 301.876686 297.970730 294.150516 290.407515 286.734806 283.126692 279.578414 276.085958 272.645899 269.255293 265.911583 262.612540 259.356200 256.140827 252.964876 249.826965 246.725852 243.660414 240.629635 237.632586 234.668420 231.736359 228.835683 225.965732 223.125887 220.315576 217.534264 214.781448 212.056658 209.359448 206.689398 204.046111 201.429208 198.838329 196.273131 193.733284 191.218472 188.728394 186.262756 183.821278 181.403688 179.009722 176.639125 174.291650 171.967057 169.665110 167.385582 165.128249 162.892896 160.679308 158.487279 156.316604 154.167084 152.038524 149.930732 147.843518 145.776699 143.730092 141.703518 139.696801 137.709769 135.742250 133.794077 131.865084 129.955109 128.063990 126.191570 124.337693 122.502204 120.684952 118.906835 118.879918 118.916058 118.990427 119.074420 119.136442 119.142922 119.059533 118.852546 118.490254 117.944381 117.191387 116.213584 115.000000 113.546917 111.858053 109.944381 107.823588 105.519213 103.059533 100.476255 97.803109 95.074420 92.323760 89.582725 86.879918 84.240169 81.684012 79.227423 76.881797 74.654146 72.547467 70.561244 68.785320 67.524445 66.277470 65.044301 63.824845 62.619012 61.426711 60.247855 59.082356 57.930129 56.791088 55.665150 54.552233 53.452257 52.365142 51.290810 50.229183 49.180186 48.143745 47.119787 46.108238 45.109030 44.122091 43.147355 42.184754 41.234222 40.295695 39.369110 38.454405 37.551518 36.660390 35.780964 34.913181 34.056986 33.212324 32.379141 31.557386 30.747006 29.947952 29.160176 28.383628 27.618264 26.864036 26.120902 25.388817 24.667741 23.957631 23.258448 22.570153 21.892708 21.226077 20.570224 19.925114 19.290714 18.666990 18.053912 17.451448 16.859569 16.278246 15.707450 15.147155 14.597335 14.057963 13.529017 13.010472 12.502305 12.004495 11.517019 11.039858 10.572992 10.116401 9.670068 9.233975 8.808104 8.392440 7.986967 7.591670 7.206533 6.831545 6.466690 6.111957 5.767332 5.432805 5.108365 4.794000 4.489700 4.195455 3.911257 3.637095 3.372963 3.118850 2.874750 2.640656 2.416559 2.202454 1.998334 1.804193 1.620026 1.445826 1.281588 1.127308 0.982981 0.848602 0.724168 0.609673 0.505115 0.410489 0.325793 0.251023 0.186176 0.131250 0.086240 0.051146 0.025965 0.010693 0.005330 0.004934 0.004566 0.004224 0.003906
524.269407 521.314246 518.368229 515.431559 512.504426 509.587010 506.679479 503.781991 500.894694 498.017725 495.151212 492.295272 489.450014 486.615538 483.791935 480.979288 478.177671 475.387151 472.607789 469.839636 467.082740 464.337139 461.602868 459.003806 456.416073 453.839636 451.274455 448.720485 446.177671 443.645955 441.125269 438.615538 436.116681 433.628605 431.151212 428.684392 426.228027 423.781991 421.346145 418.920343 416.504426 414.098226 411.701563 409.314246 406.936073 404.566832 402.206295 399.854227 397.510378 395.174488 392.846282 390.525477 388.211774 385.904864 383.604426 381.310128 379.021625 376.738560 374.460568 372.187270 369.918277 367.653192 365.391607 363.133104 360.877258 358.623635 356.371794 354.121287 351.871660 349.622454 344.007679 332.848801 325.867717 319.964607 314.639044 309.690940 305.016245 300.552706 296.259602 292.108603 288.079072 284.155440 280.325631 276.580056 272.910962 269.311975 265.777784 262.303908 258.886529 255.522364 252.208563 248.942634 245.722386 242.545877 239.411377 236.317336 233.262360 230.245185 227.264667 224.319757 221.409497 218.533006 215.689469 212.878133 210.098297 207.349309 204.630556 201.941468 199.281503 196.650155 194.046943 191.471411 188.923127 186.401679 183.906674 181.437735 178.994503 176.576631 174.183788 171.815652 169.471915 167.152279 164.856454 162.584161 160.335129 158.109093 155.905798 153.724995 151.566439 149.429895 147.315131 145.221921 143.150045 141.099287 139.069435 137.060283 135.071628 133.103271 131.155016 129.226674 127.318056 125.428977 123.559256 121.708716 119.877180 118.879918 118.916058 118.990427 119.074420 119.136442 119.142922 119.059533 118.852546 118.490254 117.944381 117.191387 116.213584 115.000000 113.546917 111.858053 109.944381 107.823588 105.519213 103.059533 100.476255 97.803109 95.074420 92.323760 89.582725 86.879918 84.240169 81.684012 79.227423 76.881797 74.654146 72.547467 70.561244 69.097061 67.824377 66.565970 65.321737 64.091575 62.875384 61.673066 60.484524 59.309660 58.148381 57.000594 55.866207 54.745131 53.637276 52.542555 51.460883 50.392175 49.336348 48.293321 47.263013 46.245346 45.240241 44.247625 43.267421 42.299556 41.343959 40.400558 39.469286 38.550074 37.642855 36.747566 35.864141 34.992518 34.132637 33.284438 32.447862 31.622851 30.809351 30.007307 29.216665 28.437373 27.669380 26.912638 26.167097 25.432710 24.709432 23.997219 23.296025 22.605810 21.926532 21.258151 20.600629 19.953926 19.318007 18.692836 18.078379 17.474602 16.881472 16.298958 15.727030 15.165658 14.614814 14.074470 13.544600 13.025177 12.516177 12.017576 11.529350 11.051478 10.583938 10.126709 9.679771 9.243105 8.816693 8.400516 7.994558 7.598802 7.213233 6.837835 6.472594 6.117497 5.772529 5.437677 5.112931 4.798278 4.493706 4.199206 3.914767 3.640379 3.376034 3.121721 2.877433 2.643162 2.418899 2.204639 2.000373 1.806095 1.621798 1.447478 1.283128 1.128742 0.984316 0.849845 0.725323 0.610748 0.506114 0.411418 0.326656 0.251824 0.186920 0.131939 0.086880 0.051739 0.026514 0.011202 0.005801 0.005371 0.004970 0.004598 0.004252
524.269407 521.314246 518.368229 515.431559 512.504426 509.587010 506.679479 503.781991 500.894694 498.017725 495.151212 492.295272 489.450014 486.615538 483.791935 480.979288 478.177671 475.387151 472.607789 469.839636 467.082740 464.337139 461.602868 459.003806 456.416073 453.839636 451.274455 448.720485 446.177671 443.645955 441.125269 438.615538 436.116681 433.628605 431.151212 428.684392 426.228027 423.781991 421.346145 418.920343 416.504426 414.098226 411.701563 409.314246 406.936073 404.566832 402.206295 399.854227 397.510378 395.174488 392.846282 390.525477 388.211774 385.904864 383.604426 381.310128 379.021625 376.738560 374.460568 372.187270 369.918277 367.653192 365.391607 363.133104 360.877258 358.623635 356.371794 354.121287 351.871660 349.622454 347.373205 345.123447 342.872709 340.620521 338.366409 336.109903 326.265155 317.381898 310.766347 305.032488 299.811991 294.940996 290.329597 285.922176 281.681502 277.581222 273.601878 269.728631 265.949859 262.256267 258.640279 255.095633 251.617077 248.200158 244.841064 241.536498 238.283587 235.079809 231.922935 228.810984 225.742181 222.714933 219.727799 216.779472 213.868758 210.994568 208.155896 205.351818 202.581478 199.844079 197.138880 194.465189 191.822356 189.209772 186.626860 184.073079 181.547914 179.050877 176.581504 174.139352 171.724000 169.335043 166.972095 164.634782 162.322748 160.035649 157.773152 155.534938 153.320694 151.130123 148.962932 146.818840 144.697573 142.598862 140.522451 138.468085 136.435518 134.424511 132.434828 130.466241 128.518526 126.591464 124.684841 122.798447 120.932076 119.085527 118.916058 118.990427 119.074420 119.136442 119.142922 119.059533 118.852546 118.490254 117.944381 117.191387 116.213584 115.000000 113.546917 111.858053 109.944381 107.823588 105.519213 103.059533 100.476255 97.803109 95.074420 92.323760 89.582725 86.879918 84.240169 81.684012 79.227423 76.881797 74.654146 72.547467 70.726532 69.426539 68.141342 66.870823 65.614870 64.373370 63.146213 61.933290 60.734494 59.549720 58.378864 57.221825 56.078501 54.948794 53.832608 52.729846 51.640414 50.564221 49.501175 48.451187 47.414170 46.390037 45.378705 44.380090 43.394110 42.420686 41.459739 40.511193 39.574971 38.651001 37.739209 36.839525 35.951880 35.076205 34.212433 33.360500 32.520343 31.691898 30.875105 30.069905 29.276239 28.494051 27.723286 26.963890 26.215810 25.478996 24.753396 24.038963 23.335649 22.643409 21.962197 21.291971 20.632687 19.984305 19.346784 18.720087 18.104175 17.499013 16.904565 16.320796 15.747674 15.185167 14.633243 14.091873 13.561028 13.040680 12.530802 12.031367 11.542351 11.063729 10.595478 10.137576 9.690000 9.252731 8.825747 8.409030 8.002561 7.606322 7.220296 6.844467 6.478819 6.123337 5.778006 5.442813 5.117744 4.802787 4.497930 4.203160 3.918468 3.643841 3.379271 3.124748 2.880261 2.645804 2.421366 2.206942 2.002521 1.808099 1.623667 1.449220 1.284751 1.130253 0.985723 0.851154 0.726542 0.611881 0.507167 0.412397 0.327565 0.252668 0.187703 0.132667 0.087555 0.052365 0.027094 0.011739 0.006299 0.005831 0.005397 0.004992 0.004617
